ply
format ascii 1.0
comment v20 pointcloud — conf>=1, radius=1.7m, n=9604
element vertex 1348
property float x
property float y
property float z
property uchar confidence
end_header
0.35478938 -0.4529368 -1.4355316 2
0.3491025 -0.4497095 -1.4214834 2
0.34337652 -0.44647434 -1.407548 2
0.33761108 -0.44323137 -1.3937253 2
0.3334173 -0.44068256 -1.3809139 2
0.32838404 -0.43777594 -1.3677506 2
0.3241241 -0.4352139 -1.355129 2
0.31983197 -0.4326454 -1.3425996 2
0.31550777 -0.43007055 -1.3301626 2
0.3119657 -0.427842 -1.3182415 2
0.30757892 -0.4252546 -1.3059838 2
0.30479574 -0.42336783 -1.2946453 2
0.30116796 -0.42112216 -1.2829702 2
0.29751158 -0.41887078 -1.2713773 2
0.29464984 -0.41696826 -1.2602643 2
0.29093802 -0.41470584 -1.2488303 2
0.28802454 -0.412793 -1.2378659 2
0.28508592 -0.41087517 -1.2269735 2
0.28212237 -0.40895233 -1.2161528 2
0.27996612 -0.4073808 -1.2057762 2
0.27778828 -0.40580502 -1.1954612 2
0.2747532 -0.40386793 -1.1848456 2
0.2725308 -0.40228322 -1.1746588 2
0.26944757 -0.40033647 -1.1641816 2
0.26718044 -0.39874288 -1.1541228 2
0.26489186 -0.397145 -1.1441257 2
0.26258194 -0.39554283 -1.1341901 2
0.26025057 -0.39393637 -1.1243161 2
0.25789762 -0.3923256 -1.1145035 2
0.2563734 -0.39107051 -1.1050736 2
0.25397944 -0.3894516 -1.095379 2
0.25241768 -0.388189 -1.0860567 2
0.24998271 -0.38656184 -1.07648 2
0.2483834 -0.38529173 -1.0672654 2
0.24676633 -0.3840181 -1.0581021 2
0.24427056 -0.3823788 -1.0486997 2
0.24261594 -0.38109764 -1.0396441 2
0.24007905 -0.37945017 -1.0303597 2
0.2375207 -0.3777984 -1.0211368 2
0.23580897 -0.37650582 -1.0122452 2
0.23320949 -0.37484583 -1.0031402 2
0.23058867 -0.3731816 -0.9940969 2
0.2279464 -0.37151304 -0.985115 2
0.22615778 -0.37020513 -0.9764439 2
0.2234745 -0.3685284 -0.96757996 2
0.22164834 -0.36721298 -0.95901656 2
0.21892393 -0.36552802 -0.95027053 2
0.21706021 -0.36420515 -0.94181484 2
0.21517873 -0.3628787 -0.9334104 2
0.21239352 -0.3611816 -0.92483866 2
0.21136212 -0.36021504 -0.9167553 2
0.20853758 -0.3585101 -0.90829647 2
0.20658278 -0.357169 -0.90010226 2
0.2055031 -0.35619286 -0.8921573 2
0.20351446 -0.35484496 -0.8840605 2
0.20150793 -0.35349354 -0.876015 2
0.20038176 -0.3525081 -0.8682034 2
0.19924128 -0.3515198 -0.86043274 2
0.19808662 -0.35052863 -0.85270315 2
0.19691765 -0.3495346 -0.8450146 2
0.19573426 -0.3485377 -0.83736706 2
0.19544399 -0.34790936 -0.82991755 2
0.19514287 -0.3472788 -0.82249874 2
0.19483113 -0.34664616 -0.81511074 2
0.193596 -0.3456389 -0.80761194 2
0.19326103 -0.3450016 -0.8002906 2
0.19291532 -0.34436217 -0.793 2
0.1934768 -0.344094 -0.7858664 2
0.19403112 -0.34382448 -0.7787532 2
0.1936568 -0.34317935 -0.7715447 2
0.19419515 -0.3429066 -0.7644777 2
0.19472623 -0.3426324 -0.7574313 2
0.19617712 -0.34273207 -0.750506 2
0.19762444 -0.34283102 -0.74359083 2
0.19906819 -0.34292924 -0.736686 2
0.20050836 -0.34302676 -0.7297914 2
0.20194495 -0.34312356 -0.72290707 2
0.20431376 -0.3435967 -0.71610796 2
0.20668256 -0.3440698 -0.7093088 2
0.20905137 -0.34454295 -0.70250964 2
0.2114203 -0.3450161 -0.6957105 2
0.21473205 -0.34586772 -0.6889658 2
0.21710265 -0.34634122 -0.6821615 2
0.21947336 -0.34681472 -0.6753572 2
0.22279227 -0.34766772 -0.6685921 2
0.22611475 -0.3485215 -0.66181654 2
0.22944093 -0.34937593 -0.65503085 2
0.23181689 -0.3498505 -0.6482112 2
0.23514831 -0.350706 -0.64141005 2
0.23848331 -0.3515623 -0.6345987 2
0.24278104 -0.35280094 -0.6277853 2
0.24612498 -0.35365894 -0.6209483 2
0.2504351 -0.3549001 -0.614099 2
0.2547524 -0.35614267 -0.60722935 2
0.25907683 -0.35738668 -0.60033906 2
0.2643764 -0.35901555 -0.59341097 2
0.26871693 -0.36026278 -0.58647454 2
0.27403617 -0.3618956 -0.57949 2
0.28033936 -0.36391512 -0.572442 2
0.28568184 -0.36555257 -0.56539077 2
0.29201186 -0.3675774 -0.5582658 2
0.2973776 -0.3692195 -0.55114794 2
0.30471492 -0.3716357 -0.54389286 2
0.31305242 -0.37444177 -0.53652805 2
0.32042718 -0.37686542 -0.5291654 2
0.32781994 -0.37929264 -0.5217512 2
0.33621824 -0.38211086 -0.51421213 2
0.34760606 -0.38609657 -0.5063749 2
0.35803497 -0.38970062 -0.49852923 2
0.3734573 -0.39525267 -0.49015585 1
0.59114146 -0.5912781 -1.8966405 1
0.5678072 -0.5795752 -1.8644179 1
0.54888713 -0.5699277 -1.8360583 1
0.5313777 -0.56095326 -1.8091606 2
0.5190933 -0.5543916 -1.7865543 2
0.50520897 -0.54711926 -1.7630296 2
0.49353528 -0.5408753 -1.7414261 2
0.4825561 -0.53496563 -1.7205843 2
0.47150922 -0.5290425 -1.6999373 2
0.46039438 -0.52310574 -1.6794852 2
0.45075452 -0.5178548 -1.6603105 2
0.44182718 -0.51294184 -1.6418463 2
0.4336176 -0.5083679 -1.6240772 2
0.42535448 -0.5037832 -1.6064618 2
0.41703784 -0.4991878 -1.5890003 2
0.41022825 -0.4952847 -1.572724 2
0.40259004 -0.4910204 -1.5560704 2
0.3956859 -0.48709843 -1.5400658 2
0.38873518 -0.48316708 -1.5241945 2
0.38173807 -0.4792265 -1.5084565 2
0.37469447 -0.47527662 -1.4928519 2
0.36839557 -0.47167113 -1.4778653 2
0.36205375 -0.468057 -1.463002 2
0.3564638 -0.4647887 -1.4487362 2
0.35003793 -0.4611579 -1.4341137 2
0.3443675 -0.4578735 -1.4200788 2
0.33865786 -0.4545813 -1.4061565 2
0.33371067 -0.451637 -1.3928013 2
0.3295313 -0.4490417 -1.3799975 2
0.3245145 -0.44608346 -1.3668422 2
0.320269 -0.44347498 -1.3542281 2
0.3159914 -0.44086 -1.3417063 2
0.3124925 -0.43859622 -1.3297054 2
0.30896485 -0.4363267 -1.3177865 2
0.30540872 -0.43405148 -1.3059494 2
0.30182397 -0.43177053 -1.2941947 2
0.29821062 -0.42948392 -1.2825217 2
0.29456878 -0.42719153 -1.270931 2
0.29171968 -0.42525318 -1.25982 2
0.2880224 -0.42294976 -1.248388 2
0.28512156 -0.42100105 -1.2374258 2
0.2821957 -0.41904733 -1.2265352 2
0.27924478 -0.4170886 -1.2157164 2
0.27709937 -0.41548637 -1.2053416 2
0.27493238 -0.41387984 -1.1950281 2
0.27191007 -0.41190687 -1.1844144 2
0.2696985 -0.41029146 -1.1742291 2
0.26662803 -0.40830883 -1.163754 2
0.26437175 -0.4066845 -1.153697 2
0.26293516 -0.4054195 -1.1440427 2
0.26063788 -0.40378693 -1.1341038 2
0.25747442 -0.40178576 -1.1238952 2
0.25597894 -0.40050897 -1.1144102 2
0.2536173 -0.39886352 -1.1046556 2
0.25208426 -0.39757928 -1.0952783 2
0.25053334 -0.3962914 -1.0859523 2
0.24896455 -0.39499995 -1.0766776 2
0.24652255 -0.39333853 -1.0671537 2
0.24491632 -0.39203963 -1.0579867 2
0.24243319 -0.39036992 -1.0485809 2
0.24078941 -0.3890635 -1.0395215 2
0.23912776 -0.38775352 -1.0305133 2
0.23658383 -0.38607177 -1.0212818 2
0.23401856 -0.38438568 -1.0121119 2
0.23143184 -0.3826953 -1.0030035 2
0.22882366 -0.38100067 -0.99395657 2
0.22619402 -0.37930176 -0.9849712 2
0.22354305 -0.3775985 -0.9760474 2
0.22174561 -0.37626144 -0.967429 2
0.21993029 -0.37492076 -0.9588618 2
0.21721852 -0.37320545 -0.95011234 2
0.21536565 -0.37185726 -0.94165283 2
0.21349502 -0.37050554 -0.93324465 2
0.21072245 -0.36877808 -0.9246695 2
0.20881426 -0.36741886 -0.91636896 2
0.2068882 -0.36605605 -0.90811974 2
0.20494437 -0.36468974 -0.8999218 2
0.20298254 -0.36331978 -0.8917751 2
0.20189583 -0.36232027 -0.8838723 2
0.19990015 -0.3609436 -0.87582296 2
0.19878304 -0.359938 -0.8680073 2
0.19765162 -0.35892954 -0.8602327 2
0.1965059 -0.35791823 -0.85249907 2
0.195346 -0.35690406 -0.8448065 2
0.19417167 -0.3558871 -0.8371549 2
0.19298315 -0.3548672 -0.82954437 2
0.19268751 -0.3542213 -0.8221264 2
0.19238114 -0.35357323 -0.8147392 2
0.19206417 -0.35292307 -0.8073828 2
0.19173634 -0.35227075 -0.8000571 2
0.19139779 -0.3516163 -0.7927623 2
0.19104862 -0.3509597 -0.78549814 2
0.19160664 -0.3506799 -0.7783856 2
0.19215739 -0.3503987 -0.7712935 2
0.1927011 -0.35011604 -0.764222 2
0.19323766 -0.34983197 -0.757171 2
0.19469213 -0.34992686 -0.7502408 2
0.19614303 -0.35002103 -0.7433208 2
0.19759035 -0.3501145 -0.73641115 2
0.1990341 -0.35020724 -0.7295117 2
0.2014066 -0.3506811 -0.72270226 2
0.20284498 -0.35077277 -0.7158182 2
0.20427978 -0.35086372 -0.70894444 2
0.20758617 -0.35171977 -0.7022097 2
0.20995677 -0.35219327 -0.6954054 2
0.21232748 -0.35266677 -0.68860114 2
0.21564102 -0.35352418 -0.6818459 2
0.2180134 -0.35399804 -0.67503655 2
0.22133231 -0.35485658 -0.6682659 2
0.2246548 -0.35571578 -0.661485 2
0.22798085 -0.3565757 -0.6546939 2
0.23035872 -0.35705063 -0.6478691 2
0.23369014 -0.35791168 -0.64106256 2
0.23702514 -0.35877338 -0.6342458 2
0.24132097 -0.36002263 -0.62742674 2
0.24466479 -0.36088613 -0.62058437 2
0.24897313 -0.36213788 -0.6137294 2
0.25425124 -0.36377898 -0.60684663 2
0.25857556 -0.3650339 -0.5999456 2
0.26290715 -0.3662903 -0.59302396 2
0.26821375 -0.36793706 -0.58605915 2
0.27353108 -0.36958596 -0.57906353 2
0.2778877 -0.37084737 -0.5720702 2
0.28419793 -0.3728902 -0.56498 2
0.28954744 -0.37454554 -0.5578921 2
0.2958846 -0.37659374 -0.550725 2
0.30321467 -0.37903586 -0.54346347 2
0.311543 -0.38187304 -0.53609186 2
0.3179283 -0.3839309 -0.5287864 2
0.32531202 -0.38638374 -0.5213709 2
0.33369935 -0.38923267 -0.5138301 2
0.3460586 -0.39365736 -0.50591123 2
0.35647476 -0.39730278 -0.49805826 2
0.3718753 -0.40292183 -0.4896763 1
0.58722746 -0.6023451 -1.896047 1
0.5669725 -0.5918642 -1.8661829 1
0.54811394 -0.5820644 -1.837811 1
0.5291482 -0.5722432 -1.8097467 2
0.5169054 -0.56557477 -1.7871358 2
0.5030663 -0.55818534 -1.7636073 2
0.4899075 -0.5511328 -1.740876 2
0.47743428 -0.5444182 -1.7189265 2
0.46641815 -0.5383971 -1.6982951 2
0.4553342 -0.5323622 -1.6778585 2
0.4457215 -0.52702355 -1.6586987 2
0.43604815 -0.5216727 -1.6397133 2
0.4278605 -0.5170207 -1.6219636 2
0.4196192 -0.5123582 -1.6043679 2
0.41132438 -0.5076848 -1.5869259 2
0.40453303 -0.5037141 -1.5706685 2
0.39691484 -0.49937698 -1.5540341 2
0.39002883 -0.4953873 -1.5380485 2
0.38309634 -0.4913883 -1.522196 2
0.37690306 -0.48773804 -1.5069718 2
0.37066698 -0.48407927 -1.4918709 2
0.3635987 -0.48005316 -1.4764081 2
0.35727513 -0.47637686 -1.4615583 2
0.35090864 -0.47269204 -1.4468315 2
0.34529388 -0.46935847 -1.4326969 2
0.34043622 -0.46637717 -1.4191393 2
0.3347447 -0.46302828 -1.4052253 2
0.32981384 -0.46003237 -1.3918778 2
0.32484722 -0.4570293 -1.3786329 2
0.32064843 -0.45438078 -1.3659341 2
0.31641757 -0.4517258 -1.3533278 2
0.3129617 -0.44942668 -1.3412468 2
0.3094772 -0.4471219 -1.3292482 2
0.30515337 -0.44444838 -1.3169084 2
0.3024224 -0.4424952 -1.3054967 2
0.2988522 -0.4401733 -1.293744 2
0.29525328 -0.43784562 -1.2820733 2
0.29162586 -0.43551227 -1.2704847 2
0.2887895 -0.43353805 -1.2593756 2
0.28510678 -0.43119368 -1.247946 2
0.28221858 -0.42920908 -1.2369856 2
0.2801305 -0.4275854 -1.226479 2
0.27719402 -0.42559114 -1.215657 2
0.27423263 -0.42359194 -1.2049068 2
0.2720766 -0.42195466 -1.1945951 2
0.26989913 -0.42031315 -1.1843448 2
0.2677002 -0.41866735 -1.1741562 2
0.26464415 -0.4166492 -1.1636777 2
0.2624005 -0.41499445 -1.1536171 2
0.26097488 -0.4137042 -1.1439593 2
0.25869012 -0.41204128 -1.1340168 2
0.2555412 -0.4100046 -1.1238048 2
0.25405657 -0.40870252 -1.1143161 2
0.25255394 -0.40739688 -1.1048787 2
0.25103354 -0.40608773 -1.0954925 2
0.2486453 -0.40440407 -1.0858474 2
0.24708736 -0.4030874 -1.0765688 2
0.24551165 -0.4017671 -1.0673416 2
0.24306262 -0.40007135 -1.0578707 2
0.24144936 -0.3987436 -1.0487512 2
0.2398181 -0.39741227 -1.0396829 2
0.23730838 -0.39570442 -1.0303864 2
0.23477721 -0.39399222 -1.0211514 2
0.23308885 -0.3926495 -1.0122473 2
0.2296505 -0.390555 -1.0028661 2
0.2279228 -0.3892044 -0.9940747 2
0.2253077 -0.38747546 -0.9850808 2
0.22267103 -0.38574222 -0.9761483 2
0.22001302 -0.38400468 -0.9672774 2
0.21820855 -0.38263878 -0.9587065 2
0.21550953 -0.38089308 -0.94995356 2
0.21366751 -0.3795196 -0.9414903 2
0.21092737 -0.37776574 -0.93285525 2
0.2090478 -0.37638482 -0.92449975 2
0.20715046 -0.37500033 -0.9161954 2
0.20523524 -0.37361225 -0.9079424 2
0.20330226 -0.37222067 -0.8997407 2
0.20135128 -0.3708255 -0.89159024 2
0.19938254 -0.36942676 -0.8834911 2
0.19828868 -0.36840388 -0.8756304 2
0.19628596 -0.36699834 -0.8676287 2
0.19516182 -0.3659694 -0.8598551 2
0.19402337 -0.36493757 -0.8521226 2
0.19287074 -0.36390296 -0.8444311 2
0.1926055 -0.36324665 -0.8369422 2
0.19232965 -0.36258826 -0.8294841 2
0.19113755 -0.3615457 -0.8219054 2
0.18993127 -0.36050037 -0.8143677 2
0.19052863 -0.36021748 -0.80715317 2
0.18929732 -0.35916713 -0.79968727 2
0.18896425 -0.3584973 -0.7923932 2
0.18953478 -0.35820904 -0.7852556 2
0.19009817 -0.35791937 -0.7781384 2
0.1906544 -0.35762826 -0.77104187 2
0.19120347 -0.35733572 -0.7639657 2
0.19174552 -0.3570418 -0.75691015 2
0.19320357 -0.35713193 -0.749975 2
0.19465804 -0.35722134 -0.7430502 2
0.19610894 -0.35731003 -0.7361357 2
0.19755638 -0.357398 -0.7292314 2
0.19900012 -0.35748526 -0.72233737 2
0.2013725 -0.35795912 -0.71552795 2
0.20374489 -0.35843298 -0.7087186 2
0.20611739 -0.35890678 -0.7019092 2
0.20848978 -0.35938063 -0.69509983 2
0.21086216 -0.3598545 -0.6882904 2
0.2141757 -0.36071745 -0.6815297 2
0.21749282 -0.36158106 -0.67475885 2
0.21986878 -0.36205563 -0.6679392 2
0.22319126 -0.3629203 -0.6611529 2
0.22651732 -0.36378577 -0.65435636 2
0.22984695 -0.3646519 -0.64754957 2
0.23318017 -0.36551878 -0.64073247 2
0.23651683 -0.36638632 -0.63390523 2
0.2398572 -0.36725459 -0.6270677 2
0.24415839 -0.36851588 -0.62022245 2
0.24846661 -0.3697786 -0.6133567 2
0.252782 -0.3710427 -0.60647047 2
0.25710452 -0.37230828 -0.5995638 2
0.2614342 -0.3735753 -0.59263647 2
0.26673722 -0.3752378 -0.5856657 2
0.27205098 -0.37690243 -0.5786642 2
0.27737534 -0.37856916 -0.5716318 2
0.28271043 -0.3802381 -0.56456864 2
0.28805637 -0.38190916 -0.55747485 2
0.29536307 -0.38437405 -0.5502529 2
0.30268764 -0.38684252 -0.54297966 2
0.3100301 -0.38931456 -0.53565514 2
0.31640995 -0.39139327 -0.5283434 2
0.32378638 -0.3938721 -0.52092135 2
0.33216465 -0.39675215 -0.51337385 2
0.34450746 -0.40122846 -0.50544715 2
0.35491085 -0.40491518 -0.49758685 2
0.36831105 -0.40980378 -0.48937544 1
0.58331335 -0.61341214 -1.8954535 1
0.56612337 -0.6041943 -1.8679457 1
0.5473263 -0.5942422 -1.8395613 1
0.52993274 -0.5849836 -1.8126382 2
0.5169816 -0.5778519 -1.7894309 2
0.50243425 -0.56998813 -1.7653165 2
0.48780107 -0.5621073 -1.7414482 2
0.47384453 -0.5545682 -1.7183822 2
0.4620986 -0.54809034 -1.697205 2
0.45028126 -0.5415982 -1.6762328 2
0.43992805 -0.5358118 -1.6565473 2
0.4310497 -0.530733 -1.6381176 2
0.42134285 -0.52528226 -1.6193213 2
0.41389477 -0.5209024 -1.6022755 2
0.40639675 -0.5165125 -1.5853733 2
0.39884853 -0.5121126 -1.5686146 2
0.39202893 -0.50806487 -1.5525094 2
0.38516295 -0.5040078 -1.5365376 2
0.3790326 -0.50030434 -1.5211987 2
0.37207544 -0.49622914 -1.5054884 2
0.36507177 -0.4921446 -1.4899113 2
0.35880923 -0.48841473 -1.474952 2
0.35250378 -0.4846762 -1.4601157 2
0.3461554 -0.48092917 -1.4454024 2
0.34134984 -0.47790346 -1.4317502 2
0.33571398 -0.47450534 -1.4177365 2
0.3308351 -0.47146496 -1.4042945 2
0.32592058 -0.4684175 -1.390955 2
0.32097042 -0.46536288 -1.377718 2
0.31678617 -0.46266785 -1.3650267 2
0.31337333 -0.4603335 -1.3528662 2
0.3091265 -0.45762596 -1.3403544 2
0.30646193 -0.45564762 -1.3287909 2
0.30296326 -0.4532961 -1.3168763 2
0.2994361 -0.4509389 -1.3050437 2
0.29588032 -0.448576 -1.2932934 2
0.29229605 -0.44620737 -1.2816249 2
0.28868306 -0.44383302 -1.2700385 2
0.28585947 -0.44182292 -1.2589313 2
0.28219116 -0.43943754 -1.2475039 2
0.28013706 -0.43778774 -1.2369323 2
0.27723837 -0.43576267 -1.2260404 2
0.2751397 -0.43410394 -1.2155969 2
0.27219272 -0.4320692 -1.2048435 2
0.27004933 -0.4304016 -1.1945283 2
0.2678845 -0.42872968 -1.1842747 2
0.2648661 -0.42668065 -1.1737263 2
0.2626567 -0.4249998 -1.1636009 2
0.2604257 -0.42331472 -1.1535368 2
0.2590109 -0.4219992 -1.1438751 2
0.25589955 -0.41993162 -1.1335936 2
0.25444543 -0.41860822 -1.1240447 2
0.2521305 -0.41690633 -1.1142216 2
0.25063884 -0.41557547 -1.1047804 2
0.2491293 -0.414241 -1.0953904 2
0.2467537 -0.412527 -1.0857418 2
0.2452066 -0.41118506 -1.0764595 2
0.24364161 -0.40983954 -1.0672286 2
0.24120533 -0.40811333 -1.0577543 2
0.2396028 -0.40676036 -1.048631 2
0.23798251 -0.40540376 -1.0395589 2
0.23634434 -0.40404364 -1.0305382 2
0.23382759 -0.4023014 -1.0212946 2
0.23128939 -0.40055493 -1.0121126 2
0.22872984 -0.39880416 -1.002992 2
0.22614872 -0.3970491 -0.9939331 2
0.22354627 -0.39528975 -0.98493564 2
0.22092223 -0.3935261 -0.9759997 2
0.2191484 -0.39213887 -0.9673686 2
0.21648335 -0.39036706 -0.9585507 2
0.21379685 -0.38859096 -0.9497942 2
0.21196568 -0.38719228 -0.9413272 2
0.20923817 -0.38540795 -0.9326887 2
0.20736957 -0.38400176 -0.9243294 2
0.20548308 -0.38259205 -0.91602135 2
0.20357871 -0.3811787 -0.9077646 2
0.20165646 -0.37976184 -0.89955914 2
0.20060384 -0.37872526 -0.89160216 2
0.19864774 -0.3773016 -0.8834941 2
0.19667375 -0.37587437 -0.87543726 2
0.19557464 -0.3748285 -0.86761355 2
0.19356668 -0.37339452 -0.8596542 2
0.19243729 -0.37234256 -0.8519177 2
0.1912936 -0.3712878 -0.8442222 2
0.19103563 -0.37061653 -0.83672893 2
0.18986523 -0.3695564 -0.8291104 2
0.18958402 -0.36888042 -0.82168376 2
0.18838668 -0.36781493 -0.8141421 2
0.18808234 -0.36713436 -0.8067822 2
0.18776715 -0.36645165 -0.799453 2
0.18835211 -0.3661553 -0.7922852 2
0.18801725 -0.36546865 -0.7850125 2
0.18767178 -0.36477992 -0.7777705 2
0.18914771 -0.36486813 -0.77078956 2
0.18970227 -0.3645657 -0.76370883 2
0.19024968 -0.36426184 -0.75664866 2
0.1917113 -0.3643472 -0.74970883 2
0.19316947 -0.36443183 -0.74277914 2
0.19462395 -0.36451575 -0.73585975 2
0.19607484 -0.36459896 -0.72895056 2
0.19752228 -0.36468145 -0.7220517 2
0.19989645 -0.36515567 -0.71523714 2
0.20227063 -0.36562988 -0.70842266 2
0.20464492 -0.3661041 -0.7016081 2
0.20795476 -0.36697176 -0.69485235 2
0.21033084 -0.36744633 -0.6880327 2
0.2127068 -0.3679209 -0.681213 2
0.2160238 -0.36879006 -0.67443675 2
0.2193445 -0.36965987 -0.66765016 2
0.22266877 -0.3705304 -0.6608533 2
0.22505009 -0.37100604 -0.65401834 2
0.22837973 -0.37187764 -0.64720607 2
0.23171282 -0.37275 -0.64038366 2
0.2350496 -0.37362304 -0.63355094 2
0.23934352 -0.37489387 -0.6267154 2
0.24268913 -0.3757687 -0.61985713 2
0.24699557 -0.37704203 -0.61298573 2
0.25130916 -0.37831673 -0.60609376 2
0.2556299 -0.37959293 -0.59918135 2
0.2609203 -0.38126937 -0.59223026 2
0.2662214 -0.38294795 -0.58524835 2
0.27153325 -0.38462862 -0.57823575 2
0.27685583 -0.3863115 -0.5711923 2
0.282189 -0.38799652 -0.56411815 2
0.28753304 -0.38968363 -0.5570132 2
0.29386103 -0.3917739 -0.5498286 2
0.30117834 -0.39426836 -0.54254884 2
0.30851352 -0.3967664 -0.5352178 2
0.3158666 -0.399268 -0.5278355 2
0.32323742 -0.40177312 -0.5204019 2
0.33259058 -0.40508738 -0.5127679 2
0.34393668 -0.40921286 -0.50490266 2
0.35432923 -0.4129413 -0.49702996 2
0.36475027 -0.41667548 -0.48907518 1
0.58089554 -0.6252022 -1.8960434 1
0.5652597 -0.6165652 -1.8697062 1
0.54652417 -0.6064608 -1.8413097 1
0.5322025 -0.5985105 -1.8166789 1
0.51779497 -0.59054315 -1.7922943 2
0.50254464 -0.5821953 -1.7675896 2
0.48644626 -0.57346594 -1.7425804 2
0.47177613 -0.565446 -1.7189496 2
0.45930755 -0.5585021 -1.6972169 2
0.44752824 -0.5519079 -1.6762451 2
0.43644345 -0.5456644 -1.6560189 2
0.42605853 -0.53977287 -1.6365228 2
0.41714847 -0.53460014 -1.6182718 2
0.4089526 -0.52978194 -1.6007099 2
0.40224946 -0.52568614 -1.5843416 2
0.39395 -0.52084744 -1.5670772 2
0.38792717 -0.5170995 -1.5514956 2
0.38108277 -0.5129756 -1.5355325 2
0.37419212 -0.50884223 -1.5197026 2
0.36725497 -0.5046997 -1.504006 2
0.36105514 -0.5009165 -1.4889321 2
0.3548125 -0.49712476 -1.4739811 2
0.34852707 -0.49332443 -1.4591532 2
0.3429879 -0.4898853 -1.4449222 2
0.3374095 -0.48643824 -1.4308039 2
0.3325845 -0.48335382 -1.4172621 2
0.3269292 -0.47989145 -1.4033642 2
0.32203102 -0.47679237 -1.3900325 2
0.3178953 -0.47405764 -1.3772516 2
0.31372738 -0.4713165 -1.364563 2
0.31032896 -0.46894112 -1.3524045 2
0.30690205 -0.4665601 -1.340328 2
0.30344665 -0.4641733 -1.3283336 2
0.29996252 -0.46178082 -1.3164213 2
0.29725873 -0.45975628 -1.3050084 2
0.29371917 -0.45735273 -1.2932549 2
0.29015112 -0.45494345 -1.2815835 2
0.28655457 -0.4525285 -1.2699943 2
0.2829293 -0.45010784 -1.258487 2
0.2800933 -0.44805685 -1.2474535 2
0.2772323 -0.4460009 -1.2364917 2
0.2751677 -0.44431612 -1.2259834 2
0.27308166 -0.44262698 -1.2155364 2
0.27014923 -0.44055673 -1.2047799 2
0.26801848 -0.43885872 -1.1944611 2
0.26503778 -0.43677887 -1.1838429 2
0.26369274 -0.4354498 -1.1740084 2
0.26066554 -0.43336073 -1.1635234 2
0.2584473 -0.43164518 -1.153456 2
0.25704324 -0.43030438 -1.1437905 2
0.25478387 -0.42858067 -1.133841 2
0.25250316 -0.42685267 -1.1239531 2
0.2510419 -0.42550048 -1.1144516 2
0.24956286 -0.42414466 -1.1050016 2
0.24722135 -0.42240456 -1.0952879 2
0.24570477 -0.42104128 -1.0859455 2
0.24332213 -0.41929296 -1.0763497 2
0.24176812 -0.41792217 -1.0671151 2
0.24019611 -0.4165478 -1.0579315 2
0.23860633 -0.41516992 -1.0487993 2
0.23614335 -0.4134055 -1.0394344 2
0.23451602 -0.41202012 -1.0304098 2
0.23287082 -0.41063115 -1.0214367 2
0.23034704 -0.40885463 -1.012246 2
0.22693944 -0.4066895 -1.0028533 2
0.22437096 -0.40490404 -0.99379086 2
0.22264719 -0.40349934 -0.9850432 2
0.2200377 -0.4017057 -0.9760987 2
0.21740675 -0.3999078 -0.9672157 2
0.21475434 -0.3981056 -0.9583942 2
0.2129538 -0.39668557 -0.9498671 2
0.21026027 -0.39487514 -0.94116354 2
0.20842218 -0.3934476 -0.93274415 2
0.20568764 -0.391629 -0.9241586 2
0.203812 -0.39019397 -0.91584677 2
0.20280063 -0.38914368 -0.9077934 2
0.20089102 -0.3877019 -0.89957905 2
0.19896352 -0.38625655 -0.89141595 2
0.19701827 -0.38480762 -0.8833041 2
0.19505501 -0.38335517 -0.87524366 2
0.19396508 -0.38228914 -0.8674159 2
0.19196796 -0.3808299 -0.8594528 2
0.19084764 -0.37975785 -0.8517122 2
0.18971288 -0.37868288 -0.8440127 2
0.18856406 -0.3776051 -0.83635414 2
0.18830073 -0.37691632 -0.82889247 2
0.18712497 -0.37583318 -0.8213109 2
0.18683851 -0.37513974 -0.8139159 2
0.18654132 -0.37444416 -0.8065517 2
0.1862334 -0.37374642 -0.7992183 2
0.18591487 -0.37304655 -0.7919156 2
0.18649614 -0.3727385 -0.7847688 2
0.18707037 -0.3724291 -0.77764255 2
0.18763745 -0.3721182 -0.7705367 2
0.18819737 -0.37180588 -0.76345146 2
0.18875015 -0.37149212 -0.75638676 2
0.19021547 -0.3715727 -0.749442 2
0.19167721 -0.37165263 -0.74250746 2
0.19313526 -0.3717318 -0.7355832 2
0.19458985 -0.37181023 -0.72866917 2
0.1969676 -0.37228516 -0.72184443 2
0.19841683 -0.37236252 -0.7149458 2
0.20079279 -0.3728371 -0.7081261 2
0.20316875 -0.37331167 -0.7013065 2
0.20554471 -0.37378618 -0.69448686 2
0.20885646 -0.37465975 -0.68772054 2
0.2121718 -0.37553397 -0.6809439 2
0.21549058 -0.37640896 -0.67415714 2
0.2178719 -0.37688455 -0.6673221 2
0.22119617 -0.37776062 -0.66051984 2
0.2245239 -0.37863734 -0.6537074 2
0.2269088 -0.3791137 -0.6468621 2
0.2302419 -0.3799915 -0.64003426 2
0.23452866 -0.38127187 -0.63320845 2
0.2378707 -0.38215145 -0.626355 2
0.24216998 -0.38343427 -0.61949325 2
0.24552095 -0.38431564 -0.61261415 2
0.25078988 -0.38600424 -0.6057083 2
0.2551105 -0.3872914 -0.59878516 2
0.25943828 -0.38857993 -0.5918414 2
0.26473582 -0.39027426 -0.5848536 2
0.27004397 -0.39197066 -0.577835 2
0.27536285 -0.39366928 -0.57078564 2
0.28069246 -0.39536998 -0.56370556 2
0.28700244 -0.3974786 -0.5565505 2
0.29235542 -0.39918396 -0.54940367 2
0.29966545 -0.4017044 -0.5421175 2
0.30699337 -0.40422842 -0.5347799 2
0.31433904 -0.40675595 -0.5273912 2
0.3236599 -0.41010216 -0.5198116 2
0.33300567 -0.41345337 -0.51216024 2
0.3453231 -0.4180343 -0.5041972 2
0.3547243 -0.42139652 -0.49638686 2
0.3661219 -0.42558172 -0.48832437 1
0.5814558 -0.6384791 -1.898998 1
0.5643816 -0.6289772 -1.8714645 1
0.5457076 -0.61872053 -1.8430557 1
0.5329399 -0.61138415 -1.8195632 1
0.52009356 -0.6040319 -1.7962961 1
0.5041475 -0.5951904 -1.7709916 2
0.48735166 -0.5859616 -1.745393 2
0.4712181 -0.57708263 -1.7206268 2
0.45803416 -0.56966305 -1.698329 2
0.445534 -0.56259763 -1.676802 2
0.43372297 -0.55588734 -1.6560307 2
0.4233725 -0.549904 -1.6365345 2
0.4137255 -0.5442786 -1.6177527 2
0.4047873 -0.53901243 -1.5996702 2
0.39733458 -0.53447795 -1.582791 2
0.38983178 -0.5299336 -1.5660553 2
0.38382888 -0.5261239 -1.5504822 2
0.3770063 -0.52193296 -1.5345277 2
0.37013733 -0.51773274 -1.5187066 2
0.36400223 -0.5138966 -1.5035127 2
0.3578242 -0.51005197 -1.4884422 2
0.3516034 -0.50619864 -1.4734944 2
0.34533966 -0.50233686 -1.4586699 2
0.33982038 -0.49884138 -1.4444418 2
0.3342619 -0.495338 -1.4303266 2
0.32945502 -0.4922023 -1.4167874 2
0.3246125 -0.48905948 -1.4033508 2
0.31973422 -0.48590955 -1.3900168 2
0.3156165 -0.48312905 -1.3772331 2
0.3114667 -0.48034212 -1.3645418 2
0.3080846 -0.47792616 -1.3523805 2
0.30467403 -0.4755045 -1.340301 2
0.30123484 -0.47307703 -1.3283038 2
0.29776704 -0.4706439 -1.3163884 2
0.29427063 -0.46820512 -1.3045552 2
0.29155445 -0.4661397 -1.293216 2
0.2871921 -0.46331033 -1.2811348 2
0.2844224 -0.46123418 -1.2699494 2
0.28081346 -0.45877293 -1.2584393 2
0.2779919 -0.4566864 -1.2474025 2
0.2751454 -0.454595 -1.2364376 2
0.27309334 -0.45287976 -1.2259257 2
0.27101994 -0.45116028 -1.2154753 2
0.26810205 -0.4490545 -1.2047155 2
0.26598394 -0.4473261 -1.1943934 2
0.26384437 -0.44559345 -1.1841327 2
0.26168346 -0.44385645 -1.1739335 2
0.2595011 -0.44211522 -1.163796 2
0.25729728 -0.4403697 -1.1537199 2
0.25590587 -0.43900397 -1.1440456 2
0.25366104 -0.43725023 -1.1340874 2
0.25139463 -0.4354922 -1.1241908 2
0.24994612 -0.43411508 -1.1146805 2
0.2476387 -0.43234888 -1.1049019 2
0.24615264 -0.43096426 -1.0954993 2
0.2446487 -0.42957607 -1.086148 2
0.24228048 -0.4277977 -1.0765437 2
0.24073899 -0.426402 -1.0673001 2
0.23917973 -0.42500272 -1.0581077 2
0.23760259 -0.42359993 -1.0489666 2
0.23515403 -0.42180553 -1.0395931 2
0.23353934 -0.42039523 -1.0305597 2
0.23104966 -0.4185926 -1.021304 2
0.22939742 -0.4171748 -1.0123783 2
0.22600603 -0.41497448 -1.0029774 2
0.22431457 -0.41354886 -0.99416435 2
0.2208767 -0.41133925 -0.9848967 2
0.21827984 -0.40951523 -0.9759487 2
0.21652937 -0.4080778 -0.967305 2
0.21389139 -0.40624556 -0.95847493 2
0.21123207 -0.40440902 -0.94970644 2
0.2094245 -0.4029602 -0.9412268 2
0.20672405 -0.40111545 -0.9325762 2
0.2048788 -0.39965913 -0.92420423 2
0.2030158 -0.39819923 -0.91588354 2
0.20113492 -0.39673576 -0.90761423 2
0.19923627 -0.3952687 -0.89939606 2
0.19731963 -0.39379808 -0.8912293 2
0.1953851 -0.39232394 -0.8831137 2
0.19432032 -0.39124098 -0.8752358 2
0.19235182 -0.38976005 -0.86721766 2
0.19125664 -0.388671 -0.8594269 2
0.18925428 -0.38718334 -0.8515062 2
0.18812859 -0.38608822 -0.8438026 2
0.18788517 -0.3853869 -0.8363008 2
0.18673265 -0.3842865 -0.8286741 2
0.18646598 -0.38358054 -0.82123893 2
0.18528676 -0.3824748 -0.81368923 2
0.18590033 -0.38216224 -0.8064609 2
0.18469608 -0.38105145 -0.798983 2
0.18529177 -0.3807353 -0.791806 2
0.18497145 -0.38001862 -0.78452456 2
0.18555105 -0.37969932 -0.77739376 2
0.18703604 -0.37977836 -0.770398 2
0.18760324 -0.3794565 -0.763303 2
0.18816316 -0.37913325 -0.75622857 2
0.18871593 -0.37880853 -0.7491746 2
0.19110096 -0.3792849 -0.7423293 2
0.19256437 -0.37935963 -0.7353951 2
0.19402432 -0.37943366 -0.7284711 2
0.1954807 -0.37950698 -0.7215574 2
0.19786024 -0.37998226 -0.71472746 2
0.20023978 -0.38045755 -0.70789754 2
0.20261943 -0.38093284 -0.7010676 2
0.20499897 -0.38140807 -0.69423777 2
0.20831239 -0.38228747 -0.6874609 2
0.21162939 -0.38316754 -0.6806738 2
0.2140125 -0.38364354 -0.6738336 2
0.21733499 -0.38452467 -0.6670311 2
0.22066092 -0.38540652 -0.6602184 2
0.22304761 -0.38588324 -0.653368 2
0.22637892 -0.38676617 -0.6465398 2
0.2297138 -0.3876498 -0.6397014 2
0.23305237 -0.38853422 -0.63285285 2
0.23734438 -0.38982657 -0.6260008 2
0.24069178 -0.3907127 -0.61912656 2
0.24594986 -0.3924156 -0.6122353 2
0.24930799 -0.3933039 -0.6053303 2
0.25458395 -0.39501038 -0.5983878 2
0.25891173 -0.39630988 -0.5914332 2
0.26420724 -0.39802024 -0.5844343 2
0.2704761 -0.40014258 -0.57737565 2
0.2748307 -0.40144745 -0.5703442 2
0.2801584 -0.4031643 -0.563253 2
0.2864647 -0.4052941 -0.55608666 2
0.29181576 -0.40701553 -0.54892886 2
0.2991203 -0.40956232 -0.54163086 2
0.30741584 -0.41252455 -0.534222 2
0.31475794 -0.41507885 -0.5268164 2
0.3240714 -0.41846195 -0.5192196 2
0.3334099 -0.42185012 -0.51155096 2
0.34669483 -0.42689672 -0.5034895 2
0.35609055 -0.43029627 -0.49565685 2
0.36846304 -0.43494305 -0.48748076 1
0.56348896 -0.64143014 -1.8732207 1
0.54786885 -0.63251114 -1.8471234 1
0.5336555 -0.6243192 -1.8224442 1
0.5193565 -0.6161101 -1.7980112 1
0.50572515 -0.6082574 -1.7743899 1
0.48974586 -0.59926665 -1.7493231 1
0.47215962 -0.5895088 -1.7234125 2
0.45826745 -0.581604 -1.7005398 2
0.4450537 -0.5740578 -1.678448 2
0.43252373 -0.56687117 -1.6571217 2
0.41991866 -0.5596696 -1.6360106 2
0.41030252 -0.5539571 -1.6172336 2
0.4013933 -0.5486089 -1.5991554 2
0.39319634 -0.54362607 -1.5817608 2
0.38571715 -0.5390096 -1.5650342 2
0.3789611 -0.5347606 -1.5489602 2
0.37215865 -0.5305023 -1.5330195 2
0.36608624 -0.5266129 -1.5177112 2
0.35997117 -0.522715 -1.5025258 2
0.35459328 -0.51918733 -1.4879522 2
0.34839416 -0.5152726 -1.4730077 2
0.34215224 -0.5113493 -1.4581865 2
0.33665287 -0.5077975 -1.4439614 2
0.33190167 -0.50461805 -1.4303174 2
0.32632565 -0.50105083 -1.4163129 2
0.32150114 -0.4978567 -1.402879 2
0.31664097 -0.49465552 -1.3895477 2
0.31253958 -0.49182895 -1.3767666 2
0.30920243 -0.489378 -1.3645202 2
0.30503857 -0.48653898 -1.3519185 2
0.3024423 -0.48445907 -1.3402736 2
0.29901934 -0.48199102 -1.3282733 2
0.29556787 -0.4795173 -1.316355 2
0.2920878 -0.47703782 -1.3045189 2
0.2885791 -0.47455266 -1.2927648 2
0.28585064 -0.4724464 -1.2814993 2
0.28228652 -0.46995017 -1.2699041 2
0.2786939 -0.4674482 -1.2583909 2
0.27588677 -0.46532622 -1.247351 2
0.27305472 -0.4631993 -1.236383 2
0.2710154 -0.4614537 -1.2258675 2
0.26895475 -0.45970383 -1.2154137 2
0.26687253 -0.45794967 -1.2050214 2
0.26476896 -0.4561912 -1.1946906 2
0.2618189 -0.45404068 -1.1840608 2
0.26049733 -0.45266148 -1.1742136 2
0.2583294 -0.4508902 -1.1640674 2
0.25614 -0.44911465 -1.1539826 2
0.25476134 -0.447724 -1.1442995 2
0.2525308 -0.4459403 -1.1343327 2
0.25027895 -0.4441522 -1.1244276 2
0.24884307 -0.4427502 -1.1149085 2
0.24655008 -0.44095394 -1.1051211 2
0.24507654 -0.4395444 -1.0957097 2
0.24358535 -0.4381313 -1.0863495 2
0.24207616 -0.43671468 -1.0770406 2
0.2397027 -0.43490234 -1.067484 2
0.23815608 -0.4334782 -1.0582829 2
0.23659158 -0.4320505 -1.0491328 2
0.23500907 -0.4306192 -1.0400342 2
0.23255539 -0.42879084 -1.0307084 2
0.23093545 -0.42735204 -1.0217174 2
0.22844052 -0.42551544 -1.0125096 2
0.22592425 -0.4236746 -1.0033631 2
0.22338653 -0.42182943 -0.99427843 2
0.21996498 -0.41958472 -0.9850024 2
0.21824682 -0.4181263 -0.97629344 2
0.21477878 -0.4158723 -0.9671507 2
0.21302128 -0.4144061 -0.9585545 2
0.21037638 -0.4125395 -0.94977736 2
0.20858133 -0.4110658 -0.9412889 2
0.2058953 -0.40919104 -0.9326297 2
0.20406282 -0.40770975 -0.9242489 2
0.20221245 -0.40622494 -0.9159193 2
0.19946563 -0.4043381 -0.90743446 2
0.19845808 -0.40324464 -0.89941406 2
0.19655406 -0.4017491 -0.89123833 2
0.19463229 -0.40025005 -0.8831139 2
0.19269252 -0.3987474 -0.87504077 2
0.19073498 -0.39724115 -0.8670188 2
0.18964875 -0.39613202 -0.8592241 2
0.18854833 -0.39502004 -0.85147035 2
0.18743348 -0.3939052 -0.84375757 2
0.18630445 -0.3927875 -0.8360859 2
0.185161 -0.39166698 -0.8284552 2
0.18490148 -0.390946 -0.8210157 2
0.18463123 -0.39022288 -0.81360704 2
0.18435037 -0.3894976 -0.80622905 2
0.18405867 -0.38877025 -0.7988819 2
0.18375623 -0.3880407 -0.7915655 2
0.18435025 -0.38771322 -0.7844044 2
0.184937 -0.38738433 -0.7772639 2
0.18551672 -0.38705406 -0.7701438 2
0.18608928 -0.3867223 -0.76304424 2
0.1875689 -0.38679478 -0.7560693 2
0.18812895 -0.38646057 -0.7490056 2
0.18959963 -0.38653126 -0.74205625 2
0.19198632 -0.38700798 -0.7352058 2
0.19345164 -0.3870776 -0.7282719 2
0.19491339 -0.3871465 -0.72134817 2
0.1972965 -0.3876225 -0.714508 2
0.19967961 -0.38809845 -0.7076678 2
0.20206273 -0.38857445 -0.7008277 2
0.20444584 -0.38905045 -0.6939875 2
0.20776105 -0.38993564 -0.6872002 2
0.21014595 -0.390412 -0.68035483 2
0.21346653 -0.39129826 -0.6735521 2
0.21585333 -0.39177498 -0.6667017 2
0.21917927 -0.39266232 -0.6598835 2
0.22250879 -0.39355037 -0.65305513 2
0.22584188 -0.3944392 -0.6462165 2
0.22917855 -0.39532867 -0.6393676 2
0.23251867 -0.39621887 -0.6325084 2
0.23681068 -0.39752218 -0.6256456 2
0.24110985 -0.398827 -0.61876225 2
0.2444644 -0.39972004 -0.6118621 2
0.24972951 -0.40144077 -0.60493416 2
0.25405002 -0.40274987 -0.5979893 2
0.25933492 -0.40447453 -0.59100497 2
0.26463044 -0.40620133 -0.58398986 2
0.26993668 -0.40793034 -0.576944 2
0.27525365 -0.40966144 -0.5698673 2
0.28058136 -0.4113947 -0.56275994 2
0.2849537 -0.4127141 -0.5556664 2
0.29126883 -0.4148676 -0.54845273 2
0.2985679 -0.41744068 -0.5411433 2
0.30685616 -0.42043445 -0.5337225 2
0.315166 -0.42343244 -0.52624017 2
0.32544708 -0.42727026 -0.51855564 2
0.3347801 -0.43069568 -0.5108646 2
0.34805214 -0.4358001 -0.5027796 2
0.356462 -0.43881807 -0.4950102 2
0.36882174 -0.44351718 -0.48681593 1
0.5596039 -0.65241516 -1.8726315 1
0.5485085 -0.64562845 -1.850025 1
0.53285325 -0.6365597 -1.8241708 1
0.5186049 -0.62822914 -1.7997239 1
0.5087805 -0.6221533 -1.7789147 1
0.4936179 -0.61341155 -1.7543691 1
0.47610033 -0.60351384 -1.7284149 2
0.46075368 -0.5947354 -1.7043974 2
0.44683528 -0.58669925 -1.6817259 2
0.4335953 -0.57902706 -1.6598299 2
0.4195143 -0.5709584 -1.6376249 2
0.4084077 -0.56439793 -1.6177733 2
0.3987651 -0.55858696 -1.599165 2
0.38982952 -0.55314577 -1.5812502 2
0.3831452 -0.5488398 -1.5650413 2
0.37564325 -0.5441419 -1.548457 2
0.36963737 -0.5402 -1.5330237 2
0.3628137 -0.53586614 -1.5172148 2
0.3582735 -0.5326741 -1.5030198 2
0.35214078 -0.5287068 -1.4879506 2
0.34596527 -0.5247309 -1.4730043 2
0.34052873 -0.5211313 -1.4586593 2
0.33505297 -0.51752365 -1.444427 2
0.32953787 -0.51390827 -1.4303076 2
0.32477093 -0.5106709 -1.4167638 2
0.31917894 -0.50704014 -1.4028647 2
0.31512964 -0.5041746 -1.3899835 2
0.31025553 -0.50091565 -1.3767474 2
0.3069346 -0.49842414 -1.3644979 2
0.30358505 -0.49592695 -1.3523307 2
0.2994089 -0.493036 -1.3398135 2
0.29680037 -0.49091527 -1.3282423 2
0.29336512 -0.4884009 -1.3163211 2
0.28990126 -0.48588082 -1.304482 2
0.2864089 -0.48335502 -1.292725 2
0.28288782 -0.4808235 -1.28105 2
0.27933824 -0.4782863 -1.269457 2
0.27657068 -0.4761338 -1.258342 2
0.2737782 -0.47397628 -1.247299 2
0.27096057 -0.47181383 -1.2363276 2
0.2689339 -0.47003785 -1.2258089 2
0.26770353 -0.46864948 -1.2157271 2
0.26563585 -0.46686527 -1.2053261 2
0.26272535 -0.46468422 -1.1946213 2
0.261436 -0.46328405 -1.1847088 2
0.25847912 -0.46109375 -1.1741375 2
0.25715053 -0.4596857 -1.1643376 2
0.25497556 -0.4578801 -1.1542444 2
0.25360942 -0.45646462 -1.1445522 2
0.25139344 -0.45465085 -1.134577 2
0.24998975 -0.4532278 -1.1249926 2
0.24773264 -0.4514058 -1.1151352 2
0.24545419 -0.4495795 -1.1053393 2
0.24399328 -0.44814512 -1.0959189 2
0.24251461 -0.4467071 -1.0865499 2
0.24017537 -0.44486865 -1.0769283 2
0.23950374 -0.4438204 -1.0679655 2
0.23797143 -0.4423717 -1.0587503 2
0.23557329 -0.4405215 -1.0492979 2
0.23400342 -0.4390653 -1.0401905 2
0.2324158 -0.43760553 -1.0311341 2
0.22995687 -0.43574324 -1.0218561 2
0.22747648 -0.4338766 -1.0126396 2
0.22497463 -0.43200573 -1.0034847 2
0.22245133 -0.43013057 -0.9943913 2
0.21990657 -0.42825112 -0.98535943 2
0.21734047 -0.42636737 -0.9763891 2
0.2147528 -0.4244794 -0.9674803 2
0.21214378 -0.42258707 -0.95863307 2
0.21038103 -0.42109236 -0.9500792 2
0.20773101 -0.4191918 -0.94134986 2
0.20505941 -0.41728702 -0.9326821 2
0.20236647 -0.415378 -0.9240758 2
0.20052683 -0.41386792 -0.9157425 2
0.19866943 -0.41235426 -0.90746045 2
0.19767272 -0.41124108 -0.89943093 2
0.19578135 -0.40972063 -0.8912463 2
0.1938721 -0.40819666 -0.883113 2
0.19194508 -0.4066691 -0.875031 2
0.19000018 -0.405138 -0.8670002 2
0.18892479 -0.40400907 -0.8591963 2
0.1878351 -0.4028773 -0.85143334 2
0.18584013 -0.40133616 -0.84354615 2
0.18472004 -0.4001983 -0.83587044 2
0.18448031 -0.39946488 -0.8283907 2
0.1833334 -0.39832166 -0.8207919 2
0.18307042 -0.3975835 -0.81337893 2
0.18279672 -0.39684328 -0.80599666 2
0.18341386 -0.3965095 -0.7987797 2
0.18312049 -0.39576527 -0.79145396 2
0.18372166 -0.39542833 -0.78428316 2
0.18431568 -0.3950899 -0.7771328 2
0.18490255 -0.39475003 -0.7700031 2
0.18548238 -0.3944088 -0.76289386 2
0.18605494 -0.39406607 -0.75580513 2
0.18753457 -0.39413306 -0.74883556 2
0.18901062 -0.39419934 -0.7418762 2
0.1904831 -0.39426497 -0.7349271 2
0.19195211 -0.39432982 -0.7279883 2
0.1943388 -0.39480653 -0.7211379 2
0.19580233 -0.3948703 -0.71421444 2
0.19911218 -0.3957599 -0.7074371 2
0.20149887 -0.39623663 -0.7005867 2
0.20388556 -0.39671335 -0.69373626 2
0.20720255 -0.39760438 -0.6869383 2
0.20959103 -0.39808145 -0.68008274 2
0.2129134 -0.39897355 -0.67326945 2
0.21530366 -0.39945093 -0.6664088 2
0.21863139 -0.40034416 -0.6595802 2
0.22196257 -0.40123805 -0.6527412 2
0.22529745 -0.40213266 -0.645892 2
0.2286359 -0.40302798 -0.6390326 2
0.23197782 -0.40392402 -0.6321628 2
0.23626983 -0.4052383 -0.6252892 2
0.23962069 -0.40613613 -0.6183939 2
0.24487507 -0.40787122 -0.61148053 2
0.24823678 -0.40877113 -0.6045545 2
0.25350893 -0.4105098 -0.5975898 2
0.25879192 -0.41225055 -0.5905943 2
0.26408553 -0.4139935 -0.5835681 2
0.26939 -0.41573855 -0.5765112 2
0.27470505 -0.41748574 -0.56942344 2
0.28003085 -0.41923508 -0.5623049 2
0.28536737 -0.42098656 -0.5551557 2
0.29071474 -0.4227402 -0.54797566 2
0.29897606 -0.42576143 -0.54059935 2
0.30725884 -0.42878696 -0.5331615 2
0.31556308 -0.4318168 -0.5256621 2
0.3268082 -0.4361196 -0.5178896 2
0.33613575 -0.43958232 -0.51017606 2
0.34939504 -0.44474444 -0.5020675 2
0.35780108 -0.44779465 -0.49427587 1
0.36916947 -0.45212206 -0.4861495 1
0.5476376 -0.65804183 -1.8517629 1
0.53651404 -0.65113974 -1.8293467 1
0.52083087 -0.64192295 -1.8037149 1
0.5095538 -0.6349902 -1.7817396 1
0.49670208 -0.6272749 -1.7588497 1
0.48151147 -0.61839044 -1.7345213 1
0.46623158 -0.6094881 -1.7104491 2
0.4508624 -0.60056794 -1.6866335 2
0.43692136 -0.592401 -1.6641529 2
0.42137706 -0.5834459 -1.6408396 2
0.40879273 -0.5760181 -1.6198992 2
0.39842582 -0.56973517 -1.6007459 2
0.38876045 -0.56382644 -1.5822961 2
0.3805697 -0.5586802 -1.5650481 2
0.3730948 -0.553911 -1.5484624 2
0.3671124 -0.5499079 -1.5330274 2
0.3610872 -0.5458963 -1.5177152 2
0.35579395 -0.5422648 -1.5030195 2
0.34968472 -0.5382364 -1.4879484 2
0.34353268 -0.5341995 -1.4730003 2
0.33811784 -0.5305438 -1.4586532 2
0.33266377 -0.52688026 -1.4444189 2
0.3279543 -0.5235994 -1.4307649 2
0.32242334 -0.51992047 -1.416751 2
0.31764054 -0.51662505 -1.4033073 2
0.31282198 -0.5133225 -1.3899661 2
0.30875862 -0.5104047 -1.3771745 2
0.30545568 -0.50787294 -1.3649172 2
0.30132985 -0.50494266 -1.352305 2
0.29796803 -0.5023991 -1.3402169 2
0.29457772 -0.49984977 -1.3282108 2
0.29115868 -0.49729475 -1.3162867 2
0.28771114 -0.49473402 -1.3044447 2
0.284235 -0.49216762 -1.2926847 2
0.2815355 -0.48999032 -1.2814127 2
0.27800405 -0.48741278 -1.2698116 2
0.2752527 -0.48522517 -1.2586884 2
0.27247643 -0.4830325 -1.247637 2
0.27048743 -0.48123118 -1.2370429 2
0.26766288 -0.47902885 -1.22613 2
0.26562917 -0.4772186 -1.2156639 2
0.2643919 -0.47580138 -1.2056297 2
0.26231706 -0.4739829 -1.1952817 2
0.25939965 -0.47176203 -1.1846354 2
0.25810337 -0.47033307 -1.1747704 2
0.25596428 -0.46850172 -1.1646068 2
0.25463045 -0.46706524 -1.1548495 2
0.25245035 -0.46522567 -1.144804 2
0.2502488 -0.46338186 -1.13482 2
0.24885774 -0.46193394 -1.1252267 2
0.24661505 -0.4600819 -1.1153607 2
0.24518657 -0.45862648 -1.1058751 2
0.24290287 -0.45676628 -1.096127 2
0.24143684 -0.45530334 -1.0867491 2
0.23995292 -0.4538369 -1.0774224 2
0.23845112 -0.45236686 -1.0681471 2
0.23693156 -0.45089325 -1.0589229 2
0.235394 -0.44941607 -1.0497501 2
0.23383868 -0.4479353 -1.0406284 2
0.23141551 -0.44604728 -1.0312804 2
0.22982264 -0.444559 -1.0222665 2
0.22735846 -0.44266275 -1.0130363 2
0.22401762 -0.44035736 -1.0036051 2
0.22236586 -0.43885735 -0.9947605 2
0.21897852 -0.43654272 -0.98546267 2
0.21642685 -0.43462893 -0.9764837 2
0.21385372 -0.43271086 -0.9675663 2
0.21212327 -0.43119517 -0.95894724 2
0.20950902 -0.42926893 -0.95014775 2
0.2068733 -0.4273384 -0.9414098 2
0.20421624 -0.42540357 -0.9327334 2
0.20240903 -0.4238725 -0.92433476 2
0.20058382 -0.42233792 -0.9159875 2
0.19874084 -0.4207997 -0.9076915 2
0.1968801 -0.41925797 -0.8994467 2
0.19500136 -0.41771266 -0.89125323 2
0.19310474 -0.41616377 -0.883111 2
0.19119036 -0.4146113 -0.8750201 2
0.1901418 -0.41346583 -0.86716086 2
0.18819344 -0.41190657 -0.85916734 2
0.1862272 -0.41034374 -0.85122514 2
0.18513227 -0.40918902 -0.84349924 2
0.184914 -0.40844336 -0.8359742 2
0.18379223 -0.40728322 -0.8283252 2
0.18265629 -0.40612027 -0.8207172 2
0.18240225 -0.40536746 -0.81329477 2
0.18213749 -0.40461257 -0.80590314 2
0.18276191 -0.40426925 -0.7986765 2
0.1824776 -0.40351042 -0.79134125 2
0.18308592 -0.40316388 -0.78416073 2
0.18278193 -0.40240112 -0.7768819 2
0.18428123 -0.40246657 -0.7698613 2
0.18486822 -0.40211573 -0.7627423 2
0.18544793 -0.40176353 -0.75564384 2
0.18693292 -0.4018261 -0.7486644 2
0.18750024 -0.4014714 -0.7416018 2
0.18989229 -0.40194914 -0.73473597 2
0.19136667 -0.40200958 -0.7277872 2
0.19375694 -0.402487 -0.7209265 2
0.1961472 -0.40296444 -0.71406585 2
0.19761431 -0.40302345 -0.7071375 2
0.20092773 -0.40391925 -0.7003445 2
0.203318 -0.40439668 -0.6934838 2
0.20663679 -0.40529355 -0.6866754 2
0.20902884 -0.40577134 -0.6798096 2
0.21235287 -0.4066693 -0.67298573 2
0.21474671 -0.40714744 -0.6661148 2
0.21807623 -0.40804645 -0.65927565 2
0.2214092 -0.4089462 -0.6524261 2
0.22474587 -0.40984663 -0.6455664 2
0.228086 -0.4107478 -0.63869643 2
0.23142982 -0.41164967 -0.63181615 2
0.2357217 -0.41297492 -0.6249319 2
0.24002063 -0.4143016 -0.6180269 2
0.24432683 -0.4156297 -0.61110145 2
0.24864018 -0.41695926 -0.6041556 2
0.25391233 -0.41871437 -0.59717464 2
0.25824165 -0.42004713 -0.5901826 2
0.26353347 -0.42180613 -0.5831454 2
0.26979303 -0.42399243 -0.5760474 2
0.2741493 -0.42533055 -0.5689785 2
0.2794732 -0.42709592 -0.5618489 2
0.28480792 -0.4288635 -0.5546886 2
0.29111755 -0.4310598 -0.54744714 2
0.29840732 -0.43368593 -0.5401092 2
0.30668283 -0.43674293 -0.53265953 2
0.31691897 -0.44065955 -0.52501684 2
0.32815492 -0.44500986 -0.5172213 2
0.33844995 -0.44893828 -0.5094093 2
0.35169828 -0.45415857 -0.5012722 1
0.35912573 -0.45681217 -0.49353948 1
0.372442 -0.46204606 -0.48520744 1
0.5467521 -0.6704962 -1.8534986 1
0.5386497 -0.665046 -1.8333671 1
0.5215355 -0.65492153 -1.8065617 1
0.50880945 -0.6471107 -1.7834319 1
0.49900377 -0.6408411 -1.7627658 1
0.48838234 -0.6341692 -1.74173 1
0.47317278 -0.62514377 -1.717593 1
0.45787382 -0.61610055 -1.6937122 1
0.44324255 -0.6074301 -1.6706271 1
0.42700803 -0.5979605 -1.6467202 2
0.4129622 -0.58964646 -1.6246663 2
0.4003588 -0.5820997 -1.6038957 2
0.3899727 -0.5757141 -1.5848961 2
0.38105392 -0.5701008 -1.567108 2
0.37284577 -0.5648688 -1.5499923 2
0.36535335 -0.56001925 -1.5335336 2
0.35935342 -0.5559468 -1.5182145 2
0.3533107 -0.5518658 -1.5030186 2
0.3479998 -0.54817057 -1.4884334 2
0.34187305 -0.54407287 -1.4734786 2
0.33570337 -0.5399666 -1.4586465 2
0.33105123 -0.5366423 -1.4448825 2
0.32558143 -0.53291523 -1.4307537 2
0.32163966 -0.52997243 -1.4176621 2
0.31609476 -0.52623045 -1.4037488 2
0.31208527 -0.52327406 -1.390852 2
0.30725443 -0.51991415 -1.3776007 2
0.3031788 -0.51694465 -1.3648936 2
0.29907095 -0.5139687 -1.3522788 2
0.29651988 -0.51178265 -1.3406191 2
0.29235137 -0.50879455 -1.3281786 2
0.28894866 -0.5061989 -1.3162518 2
0.28631723 -0.50399673 -1.3048227 2
0.2828592 -0.50139 -1.2930547 2
0.27937257 -0.4987776 -1.2813687 2
0.27666247 -0.49655983 -1.2701653 2
0.27392745 -0.494337 -1.2590338 2
0.2711674 -0.4921092 -1.2479739 2
0.2683823 -0.48987642 -1.236986 2
0.2663846 -0.48804042 -1.22645 2
0.26436543 -0.48620012 -1.2159754 2
0.2623247 -0.48435554 -1.2055624 2
0.26108038 -0.48290947 -1.1955757 2
0.25899863 -0.48105666 -1.1852806 2
0.25689542 -0.47919956 -1.175047 2
0.25477087 -0.47733822 -1.164875 2
0.25344968 -0.47587684 -1.1551087 2
0.2521106 -0.47441188 -1.1453937 2
0.24992526 -0.47253832 -1.135396 2
0.24854863 -0.4710659 -1.1257887 2
0.24632227 -0.4691842 -1.115909 2
0.2449081 -0.4677042 -1.1064093 2
0.24264061 -0.46581432 -1.0966475 2
0.241189 -0.46432683 -1.0872556 2
0.23971951 -0.46283588 -1.077915 2
0.23823214 -0.4613413 -1.0686255 2
0.236727 -0.45984313 -1.0593874 2
0.23520386 -0.4583414 -1.0502005 2
0.2328167 -0.4564276 -1.0407822 2
0.23125613 -0.45491835 -1.0317031 2
0.22882783 -0.45299634 -1.0224028 2
0.22637808 -0.45107004 -1.0131639 2
0.22390687 -0.44913945 -1.0039866 2
0.22141433 -0.44720456 -0.9948709 2
0.21890032 -0.44526544 -0.9858167 2
0.21636474 -0.44332197 -0.97682405 2
0.21380782 -0.44137427 -0.9678929 2
0.21122956 -0.43942228 -0.95902324 2
0.20862973 -0.437466 -0.95021516 2
0.20687437 -0.43591788 -0.94169486 2
0.20423353 -0.43395343 -0.93300474 2
0.20244074 -0.4323978 -0.92459214 2
0.19975877 -0.43042514 -0.9160199 2
0.19792843 -0.428862 -0.907715 2
0.19608021 -0.42729536 -0.8994614 2
0.19509077 -0.42613974 -0.8914546 2
0.19233012 -0.42415133 -0.8831079 2
0.19130862 -0.42298928 -0.8751934 2
0.18939066 -0.42140874 -0.86713976 2
0.18745494 -0.41982457 -0.85913736 2
0.18638694 -0.41865322 -0.85135615 2
0.18530452 -0.41747907 -0.84361595 2
0.18420792 -0.416302 -0.83591676 2
0.183097 -0.41512212 -0.8282586 2
0.18197179 -0.4139394 -0.82064146 2
0.18172681 -0.41317192 -0.81320953 2
0.18147111 -0.41240236 -0.8058085 2
0.1821028 -0.4120495 -0.7985722 2
0.18182743 -0.411276 -0.79122746 2
0.1824429 -0.41091993 -0.7840373 2
0.18305135 -0.4105625 -0.77686757 2
0.18365264 -0.41020355 -0.7697184 2
0.18424678 -0.40984324 -0.76258975 2
0.18483377 -0.40948144 -0.7554816 2
0.1854136 -0.40911826 -0.7483939 2
0.18689859 -0.40917537 -0.7414198 2
0.18929422 -0.40965387 -0.73454374 2
0.19077396 -0.4097099 -0.72758496 2
0.1931678 -0.41018805 -0.72071403 2
0.19556165 -0.41066614 -0.7138431 2
0.19703424 -0.4107208 -0.7069048 2
0.20034933 -0.41162243 -0.7001012 2
0.20274317 -0.41210052 -0.6932303 2
0.20606363 -0.4130033 -0.6864113 2
0.20845938 -0.41348174 -0.67953527 2
0.2117852 -0.41438553 -0.67270094 2
0.21418262 -0.4148644 -0.66581976 2
0.2175138 -0.41576925 -0.65897 2
0.22084868 -0.41667482 -0.65211004 2
0.22418702 -0.4175811 -0.6452397 2
0.22752893 -0.41848812 -0.63835925 2
0.23087442 -0.41939583 -0.63146853 2
0.23516631 -0.42073205 -0.6245733 2
0.23946524 -0.4220697 -0.61765754 2
0.24377131 -0.42340878 -0.61072135 2
0.24808466 -0.42474928 -0.60376465 2
0.2533549 -0.42652044 -0.5967727 2
0.25863588 -0.42829373 -0.58975 2
0.26297414 -0.42963925 -0.5827215 2
0.26923013 -0.43184677 -0.5756122 2
0.27358627 -0.4331958 -0.5685324 2
0.27986717 -0.43540832 -0.5613514 2
0.2842412 -0.436761 -0.55422026 2
0.2915094 -0.43941018 -0.54691696 2
0.29879558 -0.442063 -0.53956234 2
0.3070656 -0.44515184 -0.53209555 2
0.31729245 -0.44911048 -0.5244352 2
0.3304566 -0.45437428 -0.5164796 2
0.34074605 -0.45834544 -0.50863993 1
0.3549565 -0.46405777 -0.5003927 1
0.3653103 -0.4680418 -0.49236834 1
0.37373924 -0.47116235 -0.4844452 1
0.5392711 -0.67824733 -1.8362339 1
0.5251961 -0.6695564 -1.8116837 1
0.5110352 -0.6608484 -1.7873795 1
0.49978065 -0.6537006 -1.7655588 1
0.49145365 -0.64811766 -1.74616 1
0.4785601 -0.6401527 -1.7236309 1
0.46558797 -0.632172 -1.7013273 1
0.4517821 -0.6237798 -1.6787106 1
0.4356233 -0.6141826 -1.6547288 1
0.42013037 -0.60496354 -1.6315421 1
0.40606904 -0.5965203 -1.6096587 2
0.39345002 -0.58885515 -1.5890477 2
0.3830483 -0.5823678 -1.5701915 2
0.37411392 -0.5766634 -1.552536 2
0.3658899 -0.57134604 -1.5355475 2
0.35838187 -0.5664166 -1.5192106 2
0.3523662 -0.5622752 -1.5040025 2
0.34553456 -0.5577259 -1.4884299 2
0.34020615 -0.55396676 -1.4739555 2
0.33406186 -0.5497997 -1.4591167 2
0.3294314 -0.54642487 -1.4453452 2
0.3247652 -0.543043 -1.4316761 2
0.31928134 -0.5392529 -1.4176478 2
0.31454182 -0.53585637 -1.4041891 2
0.31055212 -0.5328547 -1.3912845 2
0.30653036 -0.52984643 -1.3784721 2
0.3024764 -0.52683187 -1.3657522 2
0.29839027 -0.52381074 -1.3531246 2
0.29506457 -0.5211867 -1.3410203 2
0.29171038 -0.51855683 -1.3289981 2
0.28753126 -0.51551723 -1.316637 2
0.28411806 -0.51287556 -1.3047839 2
0.28067636 -0.5102283 -1.293013 2
0.2780075 -0.5079802 -1.2817295 2
0.27531374 -0.5057273 -1.2705178 2
0.27259493 -0.50346935 -1.259378 2
0.2698512 -0.5012064 -1.2483099 2
0.26708233 -0.49893853 -1.2373135 2
