ply
format ascii 1.0
comment v20 pointcloud — conf>=1, radius=1.7m, n=9592
element vertex 1349
property float x
property float y
property float z
property uchar confidence
end_header
0.49893796 -0.4203863 -1.6502918 1
0.49046624 -0.41657037 -1.6324378 1
0.48194075 -0.4127441 -1.6147376 2
0.47336173 -0.4089076 -1.5971913 2
0.466331 -0.4056602 -1.5808241 2
0.4576484 -0.40180373 -1.5635753 2
0.4505211 -0.39853787 -1.547485 2
0.44334745 -0.39526302 -1.531528 2
0.4361272 -0.39197928 -1.5157045 2
0.42967045 -0.38898802 -1.5005014 2
0.4223591 -0.3856868 -1.4849393 2
0.41581476 -0.38267875 -1.4699874 2
0.4092275 -0.3796625 -1.4551586 2
0.40259743 -0.376638 -1.4404528 2
0.39592433 -0.37360525 -1.4258702 2
0.3908496 -0.3711713 -1.4123231 2
0.38409436 -0.36812276 -1.3979763 2
0.37894464 -0.36567438 -1.3846447 2
0.37458503 -0.36352366 -1.3718565 2
0.36936557 -0.36106187 -1.3587248 2
0.36493993 -0.35889846 -1.3461263 2
0.3604821 -0.3567289 -1.3336203 2
0.35599208 -0.3545531 -1.3212063 2
0.35146987 -0.35237116 -1.3088849 2
0.3477522 -0.35048962 -1.2970657 2
0.34400594 -0.3486026 -1.2853289 2
0.34023118 -0.3467101 -1.2736738 2
0.33726978 -0.3451197 -1.2624956 2
0.33343947 -0.34321654 -1.2509996 2
0.32958066 -0.34130794 -1.2395856 2
0.32738805 -0.34001106 -1.2290125 2
0.32432473 -0.33840114 -1.2181265 2
0.3212365 -0.3367864 -1.2073125 2
0.31812322 -0.3351668 -1.1965702 2
0.3158394 -0.33385247 -1.1862586 2
0.31267786 -0.33222365 -1.1756546 2
0.30949128 -0.33059007 -1.1651225 2
0.30627966 -0.32895166 -1.1546624 2
0.30218124 -0.32699704 -1.1439354 2
0.29978132 -0.3256604 -1.1339571 2
0.2964946 -0.32400757 -1.1237123 2
0.29318297 -0.32234997 -1.1135391 2
0.28984618 -0.32068753 -1.1034378 2
0.28735518 -0.31933343 -1.0937209 2
0.28397012 -0.3176617 -1.0837581 2
0.28143442 -0.31629902 -1.0741694 2
0.27887714 -0.31493217 -1.0646424 2
0.27542067 -0.3132468 -1.0548847 2
0.2728188 -0.3118714 -1.0454857 2
0.27019536 -0.31049186 -1.0361483 2
0.26666737 -0.30879277 -1.0265957 2
0.26399934 -0.3074047 -1.0173866 2
0.26130986 -0.30601245 -1.0082389 2
0.2594875 -0.30493265 -0.9994143 2
0.2567569 -0.3035326 -0.9903846 2
0.25400484 -0.30212837 -0.98141646 2
0.25212526 -0.3010376 -0.9727559 2
0.2502278 -0.2999434 -0.9641467 2
0.24741495 -0.29852754 -0.95535284 2
0.24547994 -0.2974261 -0.94685125 2
0.24262607 -0.2960024 -0.93817544 2
0.24155629 -0.29521304 -0.9300019 2
0.23956776 -0.29410136 -0.92165416 2
0.23756123 -0.2929862 -0.9133577 2
0.23553681 -0.29186767 -0.9051125 2
0.23440456 -0.29106635 -0.89711845 2
0.2323463 -0.28994125 -0.88897073 2
0.23118365 -0.2891341 -0.88106394 2
0.2300067 -0.28832418 -0.8731981 2
0.22881544 -0.28751147 -0.8653733 2
0.22760987 -0.28669608 -0.85758954 2
0.22546935 -0.28555524 -0.8496777 2
0.22423339 -0.284734 -0.84198105 2
0.22298312 -0.28391004 -0.8343255 2
0.22171867 -0.28308332 -0.82671094 2
0.22136772 -0.28257793 -0.81928605 2
0.22007632 -0.28174603 -0.81174845 2
0.21877074 -0.28091145 -0.80425185 2
0.21745074 -0.28007406 -0.79679626 2
0.2170515 -0.27955943 -0.7895098 2
0.21664166 -0.27904266 -0.7822541 2
0.21622097 -0.27852392 -0.77502924 2
0.21672988 -0.27832955 -0.76794785 2
0.21723175 -0.2781338 -0.76088697 2
0.21867037 -0.27826387 -0.75394905 2
0.21915972 -0.27806574 -0.7469241 2
0.2205894 -0.27819407 -0.7400119 2
0.2220155 -0.27832174 -0.7331099 2
0.22438908 -0.27877718 -0.7263001 2
0.22580993 -0.27890384 -0.71941346 2
0.22818172 -0.27935898 -0.7126088 2
0.22959709 -0.27948457 -0.70573765 2
0.23196721 -0.27993935 -0.69893813 2
0.23337722 -0.28006393 -0.6920823 2
0.23574543 -0.2805184 -0.6852879 2
0.23811376 -0.28097284 -0.67849356 2
0.24144745 -0.2817586 -0.67174006 2
0.24381745 -0.2822134 -0.6649406 2
0.2471565 -0.28300017 -0.6581717 2
0.25049913 -0.2837876 -0.6513927 2
0.25384533 -0.28457576 -0.6446033 2
0.2581694 -0.28569758 -0.6378192 2
0.26250064 -0.28682077 -0.63101435 2
0.26781702 -0.288279 -0.62419415 2
0.27216423 -0.28940523 -0.6173431 2
0.27750027 -0.29086727 -0.6104665 2
0.28383017 -0.29266602 -0.6035488 2
0.29017448 -0.2944675 -0.59659 2
0.29850674 -0.29694253 -0.58954906 2
0.30587173 -0.29908597 -0.5824723 2
0.3132547 -0.3012328 -0.57534426 2
0.3196633 -0.30304664 -0.5682009 2
0.32608616 -0.30486327 -0.56101656 2
0.3315276 -0.30634546 -0.5538373 2
0.33897483 -0.3085047 -0.54652464 2
0.34644008 -0.31066728 -0.5391607 1
0.3509196 -0.31181896 -0.5319303 1
0.35841513 -0.31398737 -0.52447927 1
0.36291444 -0.3151428 -0.5171925 1
0.37748587 -0.31969124 -0.5091152 1
0.7564851 -0.5423678 -2.048161 1
0.7438046 -0.5366017 -2.0228271 1
0.72797036 -0.52962446 -1.9953206 1
0.71050215 -0.52203065 -1.9668915 1
0.6929338 -0.51441765 -1.9387498 1
0.6551378 -0.49898434 -1.8957053 1
0.615597 -0.48291326 -1.8520567 1
0.5882994 -0.4716153 -1.8181658 1
0.5686536 -0.4633007 -1.7903733 1
0.5528071 -0.45647264 -1.7657071 1
0.53922045 -0.45053262 -1.7429731 1
0.5286945 -0.44578594 -1.7226783 1
0.518891 -0.44132936 -1.7031165 1
0.5098151 -0.4371639 -1.6842724 1
0.5014721 -0.4332906 -1.6661303 1
0.49228358 -0.4291035 -1.6476091 1
0.48462546 -0.4255131 -1.6303077 1
0.47532618 -0.42130476 -1.6121044 2
0.46756434 -0.41769445 -1.5951004 2
0.45975244 -0.41407454 -1.5782399 2
0.45269156 -0.4107502 -1.5620303 2
0.44397867 -0.40680587 -1.5449498 2
0.43762577 -0.4037689 -1.5295142 2
0.43042362 -0.4004175 -1.5137097 2
0.42317498 -0.39705718 -1.4980385 2
0.41668975 -0.3939948 -1.4829824 2
0.40934992 -0.39061695 -1.4675727 2
0.4027772 -0.38753778 -1.4527678 2
0.39616144 -0.38445038 -1.438086 2
0.39031994 -0.38166302 -1.4239883 2
0.384439 -0.37886816 -1.4100037 2
0.37769818 -0.37575674 -1.3956807 2
0.3725593 -0.37325573 -1.3823724 2
0.36820877 -0.37105745 -1.3696073 2
0.36382616 -0.36885303 -1.3569345 2
0.35858357 -0.3663321 -1.3439236 2
0.3541348 -0.364115 -1.3314406 2
0.34965384 -0.36189175 -1.3190498 2
0.3451407 -0.3596623 -1.3067513 2
0.34226513 -0.35805005 -1.2953649 2
0.33852792 -0.356121 -1.2836455 2
0.3356006 -0.3544988 -1.2724078 2
0.33180797 -0.3525591 -1.2608473 2
0.3288288 -0.350927 -1.2497585 2
0.32498074 -0.34897667 -1.238357 2
0.32194972 -0.34733456 -1.2274166 2
0.31974113 -0.3460018 -1.216922 2
0.31666195 -0.34435052 -1.2061203 2
0.31355762 -0.3426944 -1.1953902 2
0.31128109 -0.3413486 -1.1850905 2
0.30727398 -0.3393677 -1.1741455 2
0.30495095 -0.338013 -1.163979 2
0.3017484 -0.33633804 -1.1535311 2
0.2985208 -0.3346582 -1.1431549 2
0.29526818 -0.33297366 -1.1328504 2
0.29199052 -0.33128422 -1.1226177 2
0.28955305 -0.3299076 -1.1127795 2
0.2862271 -0.32820892 -1.1026853 2
0.28374505 -0.3268237 -1.0929754 2
0.28124154 -0.32543433 -1.0833269 2
0.27871656 -0.3240409 -1.07374 2
0.27529597 -0.32232404 -1.0639175 2
0.27185023 -0.32060242 -1.0541669 2
0.2692573 -0.31919587 -1.0447749 2
0.26664305 -0.31778526 -1.0354444 2
0.2640072 -0.31637055 -1.0261754 2
0.2604668 -0.31463075 -1.0166965 2
0.25867128 -0.31352872 -1.007822 2
0.2559712 -0.31210166 -0.9987376 2
0.25324953 -0.31067044 -0.98971474 2
0.25050652 -0.30923516 -0.9807534 2
0.2486341 -0.3081184 -0.9720994 2
0.24584997 -0.3066752 -0.96325606 2
0.24394011 -0.30555123 -0.95470977 2
0.24201226 -0.30442387 -0.9462147 2
0.23916733 -0.30296898 -0.93754566 2
0.23720205 -0.3018344 -0.92915833 2
0.23612165 -0.3010211 -0.92103726 2
0.23321784 -0.29955494 -0.91253746 2
0.23210526 -0.2987355 -0.9045087 2
0.23007023 -0.2975875 -0.8963213 2
0.22892725 -0.29676223 -0.88837975 2
0.22777009 -0.2959342 -0.88047916 2
0.2265985 -0.29510343 -0.8726196 2
0.22449732 -0.2939428 -0.864622 2
0.22329545 -0.2931062 -0.8568496 2
0.2211603 -0.29193902 -0.84894943 2
0.22084868 -0.29142475 -0.8414279 2
0.2196039 -0.29057992 -0.8337786 2
0.21834481 -0.28973234 -0.8261704 2
0.2170713 -0.28888202 -0.8186031 2
0.2157836 -0.28802896 -0.8110769 2
0.2154113 -0.28750306 -0.8037298 2
0.21409678 -0.28664488 -0.79628044 2
0.21370113 -0.28611445 -0.789 2
0.21329486 -0.285582 -0.7817503 2
0.21287775 -0.28504753 -0.77453136 2
0.21338856 -0.28484255 -0.7674557 2
0.21483254 -0.2849682 -0.7605078 2
0.21533084 -0.28476083 -0.75346804 2
0.21676588 -0.2848847 -0.7465458 2
0.21819735 -0.2850079 -0.73963386 2
0.22057283 -0.28546375 -0.7328189 2
0.22104967 -0.28525227 -0.7258407 2
0.22342145 -0.2857074 -0.71903604 2
0.2248404 -0.28582823 -0.71216 2
0.22721052 -0.28628302 -0.70536053 2
0.2286241 -0.28640282 -0.6984998 2
0.23099244 -0.2868573 -0.6917054 2
0.23336065 -0.28731173 -0.684911 2
0.23572898 -0.28776622 -0.6781167 2
0.23809719 -0.2882207 -0.6713223 2
0.24143088 -0.2890119 -0.6645634 2
0.243801 -0.28946668 -0.65776396 2
0.24713993 -0.29025894 -0.6509897 2
0.25145328 -0.29138958 -0.6442253 2
0.25480127 -0.29218358 -0.6374255 2
0.26010144 -0.2936551 -0.6306352 2
0.26443624 -0.2947899 -0.6238093 2
0.26975608 -0.29626524 -0.6169626 2
0.27508664 -0.2977426 -0.6100851 2
0.28140938 -0.29956192 -0.6031663 2
0.28774643 -0.3013839 -0.5962063 2
0.2950828 -0.30354917 -0.5891846 2
0.30243707 -0.3057179 -0.5821115 2
0.30980933 -0.30789 -0.5749871 2
0.31620884 -0.30972403 -0.5678477 2
0.32361495 -0.3119027 -0.56062603 2
0.33004498 -0.31374252 -0.55339944 2
0.33748507 -0.31592768 -0.54608023 1
0.34494293 -0.3181163 -0.5387098 1
0.347422 -0.318592 -0.5315975 1
0.3549068 -0.32078576 -0.5241501 1
0.35839772 -0.32160717 -0.51693994 1
0.372944 -0.3262164 -0.50886965 1
0.74115217 -0.5491246 -2.023375 1
0.72536826 -0.5420147 -1.9958655 1
0.71102905 -0.535496 -1.969811 1
0.6858163 -0.5246932 -1.9357558 1
0.64347637 -0.50715065 -1.8892437 1
0.60556674 -0.4914 -1.8468199 1
0.58143044 -0.48111773 -1.815276 1
0.5633869 -0.47326028 -1.7886498 1
0.5475818 -0.46630335 -1.7640009 1
0.53481245 -0.46055675 -1.7418417 1
0.5235342 -0.45541018 -1.721004 1
0.5129727 -0.4505582 -1.7009094 1
0.5039202 -0.4463097 -1.682085 1
0.49559903 -0.44235843 -1.6639626 1
0.48643386 -0.4380883 -1.6454614 1
0.47800362 -0.43411613 -1.6276518 1
0.46951973 -0.4301337 -1.6099961 2
0.4609822 -0.4261409 -1.592494 2
0.4531883 -0.42244786 -1.5756581 2
0.44614363 -0.41905552 -1.5594728 2
0.43905246 -0.41565424 -1.5434207 2
0.43111205 -0.41193306 -1.5270052 2
0.42392623 -0.4085136 -1.511225 2
0.41750014 -0.40539694 -1.4960645 2
0.41103113 -0.402272 -1.4810271 2
0.4037094 -0.39882648 -1.4656366 2
0.3963412 -0.3953721 -1.4503794 2
0.39055336 -0.39253485 -1.4361875 2
0.3847263 -0.38969004 -1.4221084 2
0.37804282 -0.38652396 -1.4076862 2
0.372954 -0.38397783 -1.3942885 2
0.36700892 -0.38111043 -1.3805479 2
0.36266935 -0.378865 -1.3678007 2
0.35747337 -0.3762983 -1.3547106 2
0.35306752 -0.3740402 -1.3421532 2
0.3486296 -0.37177593 -1.3296881 2
0.34415948 -0.36950547 -1.3173153 2
0.34048843 -0.3675453 -1.3054495 2
0.3367889 -0.36557972 -1.2936656 2
0.33306074 -0.3636086 -1.2819641 2
0.3301406 -0.3619495 -1.2707436 2
0.32719553 -0.36028558 -1.2595952 2
0.32338512 -0.35829872 -1.2481292 2
0.32038808 -0.3566249 -1.2371294 2
0.31736612 -0.35494626 -1.2262013 2
0.3151648 -0.35358202 -1.2157187 2
0.3129419 -0.35221368 -1.2052977 2
0.30984843 -0.35052133 -1.1945748 2
0.3067299 -0.3488242 -1.1839237 2
0.30358648 -0.34712225 -1.1733444 2
0.3004179 -0.34541547 -1.1628368 2
0.29722428 -0.34370393 -1.152401 2
0.29486382 -0.34230918 -1.1423748 2
0.29162204 -0.34058833 -1.1320775 2
0.28835523 -0.33886272 -1.1218519 2
0.28592682 -0.33745492 -1.1120205 2
0.28261173 -0.33572006 -1.1019335 2
0.2801386 -0.33430368 -1.0922303 2
0.27764416 -0.33288324 -1.0825887 2
0.27512813 -0.3314587 -1.0730085 2
0.27171826 -0.3297056 -1.0631933 2
0.26915765 -0.32827246 -1.0537415 2
0.26657557 -0.32683522 -1.0443511 2
0.26397204 -0.3253938 -1.0350223 2
0.26134706 -0.32394832 -1.0257549 2
0.25781918 -0.32217264 -1.016278 2
0.2551496 -0.32071853 -1.007139 2
0.25245845 -0.31926036 -0.9980615 2
0.24974585 -0.31779808 -0.98904544 2
0.24701178 -0.31633162 -0.980091 2
0.24514663 -0.31518888 -0.97144353 2
0.24237156 -0.31371462 -0.96260697 2
0.24046886 -0.31256467 -0.95406723 2
0.23854828 -0.31141132 -0.9455787 2
0.23660982 -0.3102545 -0.93714154 2
0.23465347 -0.3090943 -0.9287556 2
0.23267925 -0.30793065 -0.92042094 2
0.23068714 -0.3067636 -0.9121375 2
0.22867727 -0.30559307 -0.90390545 2
0.2266494 -0.3044191 -0.89572465 2
0.22551191 -0.303573 -0.88778937 2
0.22436011 -0.30272412 -0.879895 2
0.22228217 -0.30154055 -0.87185776 2
0.22018647 -0.3003536 -0.8638718 2
0.21898818 -0.29949582 -0.8561108 2
0.21777558 -0.29863524 -0.8483909 2
0.21654868 -0.297772 -0.84071195 2
0.21530747 -0.29690593 -0.83307403 2
0.21405196 -0.2960372 -0.8254772 2
0.2137065 -0.29549998 -0.81806934 2
0.21242416 -0.29462612 -0.8105494 2
0.21112764 -0.29374945 -0.8030704 2
0.21074629 -0.29320538 -0.7957652 2
0.21035433 -0.29265928 -0.7884907 2
0.20995164 -0.2921111 -0.781247 2
0.21047318 -0.29189724 -0.7741514 2
0.21098757 -0.29168206 -0.76707625 2
0.21243334 -0.29180253 -0.7601287 2
0.21387553 -0.29192233 -0.75319135 2
0.21437204 -0.2917037 -0.74616754 2
0.21580541 -0.29182178 -0.73925585 2
0.21723509 -0.29193914 -0.73235446 2
0.21960866 -0.29239464 -0.7255447 2
0.2210331 -0.29251105 -0.7186586 2
0.22245383 -0.29262668 -0.7117828 2
0.22482395 -0.29308152 -0.70498335 2
0.22719395 -0.2935363 -0.69818383 2
0.22860765 -0.29365063 -0.6913286 2
0.23097587 -0.2941051 -0.6845342 2
0.2333442 -0.29455954 -0.6777398 2
0.23667419 -0.29535556 -0.6709858 2
0.23904431 -0.29581034 -0.6641863 2
0.24141431 -0.29626513 -0.6573868 2
0.24475157 -0.29706252 -0.65061224 2
0.24906135 -0.29820347 -0.64384735 2
0.25240743 -0.29900253 -0.63704723 2
0.25672972 -0.30014586 -0.6302464 2
0.26203346 -0.30163455 -0.6234296 2
0.26637173 -0.302781 -0.6165827 2
0.27169514 -0.30427337 -0.60970944 2
0.27800894 -0.30611283 -0.6027945 2
0.28433704 -0.30795503 -0.59583867 2
0.29166257 -0.31014556 -0.5888206 2
0.29802108 -0.3119936 -0.5817775 2
0.30538058 -0.3141907 -0.57466197 2
0.3127581 -0.31639117 -0.5674952 2
0.32015336 -0.3185951 -0.5602771 2
0.32657433 -0.32045513 -0.5530546 2
0.3340037 -0.32266557 -0.54573905 1
0.34244657 -0.3252275 -0.5383153 1
0.3459232 -0.32605165 -0.5311408 1
0.35140204 -0.3275739 -0.52382153 1
0.35689163 -0.32909822 -0.5164713 1
0.3684094 -0.3327211 -0.5086251 1
0.7053987 -0.5465459 -1.9679759 1
0.6756382 -0.53368795 -1.930409 1
0.63185096 -0.5152144 -1.8827878 1
0.5986545 -0.5010473 -1.8439018 1
0.5761241 -0.49120104 -1.8135353 1
0.5581274 -0.48319936 -1.7869273 1
0.5439191 -0.4767369 -1.7634221 1
0.53040814 -0.47057062 -1.7407107 1
0.5183809 -0.46501398 -1.7193308 1
0.5070653 -0.4597563 -1.6987038 1
0.49882102 -0.45573777 -1.680442 1
0.48895 -0.4510821 -1.6612592 1
0.48059487 -0.44704235 -1.6433154 1
0.47218633 -0.4429922 -1.6255254 1
0.46372402 -0.43893182 -1.6078893 2
0.45520806 -0.43486118 -1.590407 2
0.4474342 -0.4310953 -1.5735904 2
0.43961012 -0.42731982 -1.5569174 2
0.43253517 -0.42385054 -1.5408895 2
0.42541385 -0.4203723 -1.5249951 2
0.4182459 -0.4168852 -1.5092338 2
0.4110316 -0.41338915 -1.493606 2
0.40457702 -0.4102013 -1.4785925 2
0.39807963 -0.40700525 -1.4637022 2
0.39153934 -0.40380102 -1.4489348 2
0.38495612 -0.4005885 -1.4342905 2
0.37833 -0.39736778 -1.4197694 2
0.37329137 -0.39477652 -1.4062822 2
0.36740005 -0.39185923 -1.3924472 2
0.3614694 -0.38893437 -1.378725 2
0.35714066 -0.3866418 -1.3659959 2
0.3519572 -0.38402283 -1.352924 2
0.3475623 -0.3817175 -1.3403845 2
0.34313524 -0.3794061 -1.3279374 2
0.33867586 -0.37708843 -1.3155825 2
0.335014 -0.37508625 -1.3037343 2
0.33215475 -0.37340057 -1.2923775 2
0.32843733 -0.37138772 -1.2806883 2
0.32552624 -0.3696921 -1.2694802 2
0.32259023 -0.36799157 -1.2583439 2
0.31879056 -0.36596298 -1.2468905 2
0.31664288 -0.36457628 -1.2362866 2
0.31363177 -0.3628614 -1.2253658 2
0.3105955 -0.36114174 -1.2145166 2
0.30838 -0.35974193 -1.2041075 2
0.30614293 -0.35833806 -1.1937599 2
0.30303526 -0.3566047 -1.183116 2
0.29990256 -0.3548665 -1.1725438 2
0.29674482 -0.3531235 -1.1620433 2
0.29356205 -0.3513757 -1.1516147 2
0.29035425 -0.34962308 -1.1412578 2
0.2879796 -0.3481928 -1.131305 2
0.28558338 -0.34675837 -1.1214138 2
0.28230417 -0.34499204 -1.1112621 2
0.27986336 -0.34354907 -1.1014991 2
0.2774011 -0.34210193 -1.0917977 2
0.27405024 -0.3403219 -1.081851 2
0.27154338 -0.33886623 -1.0722778 2
0.26901495 -0.33740646 -1.0627661 2
0.26646507 -0.3359425 -1.0533159 2
0.26389384 -0.3344745 -1.0439272 2
0.2604251 -0.33267182 -1.034319 2
0.25780904 -0.33119524 -1.0250586 2
0.25517166 -0.32971454 -1.0158597 2
0.2525128 -0.32822967 -1.0067223 2
0.24894929 -0.3264088 -0.99738586 2
0.24713063 -0.32524765 -0.9886322 2
0.24440742 -0.3237505 -0.9796794 2
0.24255121 -0.32258213 -0.9710334 2
0.23978698 -0.32107705 -0.96219856 2
0.23789322 -0.31990147 -0.9536602 2
0.2359817 -0.3187225 -0.94517314 2
0.23315656 -0.3172058 -0.93651265 2
0.23120749 -0.31601954 -0.92813325 2
0.22924042 -0.31482995 -0.91980517 2
0.22725558 -0.3136369 -0.91152835 2
0.22615564 -0.3127761 -0.903507 2
0.22413683 -0.3115765 -0.89532757 2
0.22210014 -0.31037349 -0.88719946 2
0.22004557 -0.30916703 -0.8791226 2
0.21888304 -0.30829424 -0.8712808 2
0.21679449 -0.30708128 -0.86330134 2
0.21560168 -0.30620265 -0.85554665 2
0.21439445 -0.30532128 -0.8478329 2
0.21317303 -0.3044371 -0.84016025 2
0.21193719 -0.30355024 -0.8325286 2
0.21068716 -0.30266064 -0.824938 2
0.21034527 -0.3021077 -0.8175362 2
0.2090683 -0.30121297 -0.8100225 2
0.20870316 -0.30065554 -0.8026873 2
0.2083273 -0.30009615 -0.795383 2
0.2079407 -0.29953468 -0.7881093 2
0.20754337 -0.29897112 -0.7808665 2
0.20806849 -0.298747 -0.7737714 2
0.20952153 -0.2988634 -0.76680875 2
0.21003413 -0.2986369 -0.75974953 2
0.21147811 -0.29875153 -0.7528125 2
0.21197832 -0.29852265 -0.74578923 2
0.21435547 -0.29897887 -0.7389692 2
0.21484482 -0.2987479 -0.7319767 2
0.21721852 -0.2992034 -0.725167 2
0.21864462 -0.29931462 -0.7182812 2
0.22101653 -0.29976976 -0.71147656 2
0.22243726 -0.29987997 -0.7046062 2
0.22480738 -0.3003348 -0.6978067 2
0.22622275 -0.30044395 -0.6909517 2
0.22859108 -0.30089843 -0.6841573 2
0.2319175 -0.30169922 -0.67740816 2
0.23332763 -0.30180734 -0.6705685 2
0.23665762 -0.3026088 -0.6638092 2
0.23902774 -0.30306363 -0.65700966 2
0.24332857 -0.30421382 -0.65025955 2
0.24666929 -0.3050173 -0.64346933 2
0.2500137 -0.30582154 -0.6366689 2
0.2543323 -0.30697513 -0.62986755 2
0.25865805 -0.3081301 -0.62304574 2
0.26396537 -0.30963582 -0.6162024 2
0.2692833 -0.31114364 -0.6093283 2
0.27558994 -0.3130036 -0.6024123 2
0.28191078 -0.31486624 -0.5954553 2
0.28824592 -0.3167317 -0.58845717 2
0.2955786 -0.318951 -0.5813916 2
0.30194426 -0.32082224 -0.57430625 2
0.3083241 -0.32269627 -0.56718004 2
0.31570673 -0.32492512 -0.5599708 2
0.32310736 -0.3271575 -0.5527103 2
0.33052588 -0.3293932 -0.5453985 1
0.3399502 -0.33233875 -0.5379208 1
0.34342504 -0.33316797 -0.530746 1
0.34989595 -0.33505946 -0.5233582 1
0.35438263 -0.3362453 -0.51607484 1
0.36488318 -0.3395598 -0.5083039 1
0.6624212 -0.5413403 -1.9227129 1
0.621799 -0.52380645 -1.8775042 1
0.5902157 -0.51002204 -1.8398293 1
0.570825 -0.50126386 -1.8117958 1
0.55442333 -0.49375087 -1.786342 1
0.5402564 -0.48717046 -1.7628433 1
0.5260073 -0.48057425 -1.7395805 1
0.51323485 -0.47459722 -1.7176588 1
0.5027311 -0.46955925 -1.6975948 1
0.49294603 -0.46482712 -1.6782578 1
0.48388505 -0.46040183 -1.6596323 1
0.47476685 -0.45596558 -1.6411711 1
0.4671682 -0.45215678 -1.6239276 1
0.45793915 -0.44769925 -1.6057842 2
0.4502368 -0.44387048 -1.5888383 2
0.44169068 -0.43971193 -1.5715244 2
0.43388653 -0.43586367 -1.5548707 2
0.4268297 -0.43232667 -1.538862 2
0.4189272 -0.42845953 -1.5224904 2
0.4117756 -0.4249044 -1.5067533 2
0.40538013 -0.42166227 -1.4916356 2
0.39813745 -0.41808963 -1.4761602 2
0.3916545 -0.41483068 -1.4612937 2
0.3851285 -0.41156352 -1.4465504 2
0.37855983 -0.40828812 -1.4319301 2
0.3735714 -0.4056518 -1.4183533 2
0.36692035 -0.40236062 -1.4039689 2
0.36185694 -0.39970988 -1.3906076 2
0.3559407 -0.39672762 -1.376904 2
0.3516227 -0.39438784 -1.3641927 2
0.34727252 -0.39204192 -1.3515737 2
0.34289026 -0.3896898 -1.3390471 2
0.3384757 -0.3873315 -1.3266127 2
0.33485496 -0.38529348 -1.3146899 2
0.33037794 -0.3829232 -1.302435 2
0.32669818 -0.3808738 -1.2906814 2
0.3238212 -0.37914634 -1.2794138 2
0.32091916 -0.3774141 -1.268218 2
0.31715727 -0.375349 -1.2567003 2
0.31504 -0.37393522 -1.2460417 2
0.31206286 -0.37218857 -1.2350612 2
0.309901 -0.37076628 -1.2245307 2
0.3068756 -0.3690104 -1.2136886 2
0.30466902 -0.36757952 -1.2032864 2
0.30159533 -0.36581433 -1.1925828 2
0.29934406 -0.36437488 -1.1823088 2
0.2962222 -0.36260045 -1.1717436 2
0.2930752 -0.36082125 -1.1612504 2
0.28990328 -0.35903722 -1.1508288 2
0.28756082 -0.35758024 -1.1408162 2
0.28434062 -0.35578698 -1.1305332 2
0.28195357 -0.35432148 -1.1206489 2
0.2786851 -0.35251892 -1.1105042 2
0.27625322 -0.35104483 -1.1007481 2
0.27380002 -0.34956658 -1.0910535 2
0.27132535 -0.34808427 -1.0814204 2
0.2688291 -0.34659785 -1.0718489 2
0.26631153 -0.34510726 -1.0623388 2
0.2637725 -0.3436126 -1.0528904 2
0.26033962 -0.34177852 -1.0432175 2
0.25775588 -0.34027523 -1.0338973 2
0.25515068 -0.3387679 -1.0246385 2
0.25252402 -0.33725637 -1.0154413 2
0.24987602 -0.3357408 -1.0063057 2
0.24720645 -0.33422107 -0.9972315 2
0.24451542 -0.33269727 -0.9882189 2
0.24180305 -0.3311693 -0.97926784 2
0.2399559 -0.3299753 -0.97062325 2
0.23720229 -0.32843947 -0.9617901 2
0.23531759 -0.32723832 -0.95325315 2
0.23252296 -0.32569456 -0.944538 2
0.23060071 -0.3244862 -0.93610877 2
0.22866058 -0.3232743 -0.9277308 2
0.22670269 -0.3220591 -0.91940415 2
0.2247268 -0.32084036 -0.91112876 2
0.22273302 -0.31961828 -0.9029046 2
0.22072148 -0.3183927 -0.89473176 2
0.21869195 -0.3171637 -0.88661015 2
0.217551 -0.31627315 -0.8787284 2
0.21548748 -0.31503767 -0.8707043 2
0.21431613 -0.3141412 -0.8629097 2
0.21221876 -0.31289923 -0.854983 2
0.21101701 -0.311997 -0.84727556 2
0.20980084 -0.31109202 -0.83960915 2
0.20857048 -0.31018424 -0.83198375 2
0.20824468 -0.30961806 -0.82455206 2
0.2069875 -0.30870515 -0.8170036 2
0.20663857 -0.30813444 -0.8096385 2
0.20535457 -0.30721647 -0.80216694 2
0.2059083 -0.30698687 -0.7950007 2
0.20552707 -0.30641 -0.7877279 2
0.20606482 -0.30617738 -0.78060776 2
0.2065953 -0.30594337 -0.77350813 2
0.20711875 -0.305708 -0.766429 2
0.20763493 -0.30547124 -0.7593704 2
0.2090807 -0.3055808 -0.75243366 2
0.21052301 -0.30568963 -0.7455072 2
0.21196163 -0.30579782 -0.73859096 2
0.21339679 -0.30590528 -0.7316849 2
0.21482825 -0.3060121 -0.72478926 2
0.21625626 -0.3061182 -0.71790373 2
0.21862817 -0.3065734 -0.7110991 2
0.2200507 -0.30667847 -0.70422906 2
0.22242069 -0.30713326 -0.69742954 2
0.22479081 -0.30758804 -0.6906301 2
0.22716093 -0.30804288 -0.6838305 2
0.22953093 -0.30849767 -0.67703104 2
0.23190105 -0.30895245 -0.67023146 2
0.23427105 -0.3094073 -0.663432 2
0.23760295 -0.31021458 -0.656662 2
0.2409383 -0.31102252 -0.64988184 2
0.24427724 -0.31183118 -0.6430913 2
0.24761987 -0.3126405 -0.63629067 2
0.2519349 -0.31380433 -0.6294887 2
0.25625706 -0.3149696 -0.6226663 2
0.261559 -0.3164907 -0.61582214 2
0.26687157 -0.3180139 -0.6089472 2
0.27219486 -0.31953913 -0.60204154 2
0.27850676 -0.32142198 -0.5950885 2
0.28483295 -0.32330757 -0.58809435 2
0.29117334 -0.3251959 -0.5810593 2
0.2985114 -0.3274436 -0.5739512 2
0.30488217 -0.32933778 -0.5668289 2
0.3122542 -0.33159196 -0.55962336 2
0.3186555 -0.33349192 -0.5524139 2
0.32705176 -0.3361106 -0.5450585 1
0.33646166 -0.33909166 -0.53758395 1
0.33993292 -0.3399257 -0.530414 1
0.3463949 -0.34183735 -0.5230302 1
0.35287118 -0.3437518 -0.5156054 1
0.36136043 -0.34638828 -0.5079833 1
0.37687874 -0.35154897 -0.49971688 1
0.64465654 -0.5469483 -1.9114943 1
0.6117759 -0.5323165 -1.8722253 1
0.58179855 -0.51893526 -1.8357604 1
0.563992 -0.5106637 -1.8089118 1
0.54917467 -0.5036592 -1.7846212 1
0.5350456 -0.49696016 -1.7611393 1
0.52161014 -0.49056756 -1.7384508 1
0.5088737 -0.4844826 -1.7165401 1
0.49762106 -0.479029 -1.6959393 1
0.48786306 -0.47420907 -1.6766174 1
0.47804427 -0.4693774 -1.6574699 1
0.4697343 -0.46518207 -1.6395601 1
0.4613707 -0.46097648 -1.6218045 2
0.45295346 -0.45676053 -1.6042025 2
0.44448256 -0.45253432 -1.5867543 2
0.43675005 -0.44862318 -1.5699713 2
0.42817378 -0.44437677 -1.5528257 2
0.42193043 -0.44109815 -1.5373371 2
0.4148469 -0.43748492 -1.5214756 2
0.4069178 -0.43353605 -1.5052567 2
0.3997395 -0.42990464 -1.4896669 2
0.39251482 -0.4262643 -1.4742106 2
0.38604808 -0.42294282 -1.459363 2
0.37953842 -0.41961306 -1.4446384 2
0.37379396 -0.41660357 -1.4305019 2
0.36801016 -0.4135865 -1.4164784 2
0.36218703 -0.41056192 -1.4025676 2
0.35632455 -0.40752977 -1.3887696 2
0.351238 -0.40481985 -1.3755293 2
0.34693265 -0.40243328 -1.3628308 2
0.34177625 -0.39971 -1.3497902 2
0.33822536 -0.39764154 -1.3377107 2
0.33382344 -0.39523643 -1.3252892 2
0.33021355 -0.3931567 -1.3133789 2
0.32657504 -0.39107144 -1.3015506 2
0.32290792 -0.3889807 -1.2898045 2
0.31921232 -0.38688445 -1.2781404 2
0.31631923 -0.38511568 -1.2669568 2
0.31340122 -0.38334203 -1.2558451 2
0.31045806 -0.38156366 -1.244805 2
0.30832672 -0.38011432 -1.2342198 2
0.30533528 -0.37832665 -1.2233183 2
0.30231893 -0.37653416 -1.2124884 2
0.30011964 -0.37507188 -1.2020983 2
0.29789877 -0.37360543 -1.1917695 2
0.29565656 -0.37213486 -1.1815023 2
0.29254544 -0.3703242 -1.1709442 2
0.28940928 -0.36850876 -1.1604581 2
0.2862482 -0.3666885 -1.1500436 2
0.2839148 -0.36520046 -1.1400379 2
0.28155994 -0.36370826 -1.1300938 2
0.2791835 -0.362212 -1.1202111 2
0.27592766 -0.36037356 -1.1100684 2
0.27350664 -0.35886872 -1.100314 2
0.27106428 -0.3573597 -1.0906211 2
0.26860034 -0.35584664 -1.0809898 2
0.26611495 -0.3543294 -1.07142 2
0.26360822 -0.35280812 -1.0619117 2
0.2602111 -0.35094255 -1.0521741 2
0.25765967 -0.34941268 -1.042794 2
0.25595903 -0.34821945 -1.033756 2
0.2524923 -0.34634054 -1.0242184 2
0.2498765 -0.34479833 -1.015023 2
0.24723923 -0.34325194 -1.0058889 2
0.2445805 -0.34170145 -0.9968165 2
0.24278164 -0.3404894 -0.98806053 2
0.23919868 -0.33858818 -0.9788563 2
0.23736048 -0.33736855 -0.97021306 2
0.23550439 -0.33614546 -0.96162117 2
0.23274207 -0.33457512 -0.95284617 2
0.23084843 -0.33334482 -0.9443619 2
0.22804499 -0.3317666 -0.9357049 2
0.2261138 -0.3305291 -0.92732835 2
0.22416484 -0.32928818 -0.9190031 2
0.22219801 -0.32804388 -0.9107291 2
0.2202133 -0.3267961 -0.9025064 2
0.2182107 -0.32554495 -0.894335 2
0.2161901 -0.32429034 -0.88621485 2
0.21415174 -0.32303226 -0.87814593 2
0.2120955 -0.3217708 -0.8701284 2
0.21092963 -0.32085353 -0.86234003 2
0.20883942 -0.31958556 -0.8544199 2
0.20764303 -0.31866246 -0.8467187 2
0.20734584 -0.3180853 -0.8392212 2
0.20612276 -0.31715703 -0.831597 2
0.20580232 -0.3165754 -0.82416606 2
0.2045523 -0.31564206 -0.81661874 2
0.20420873 -0.31505597 -0.8092545 2
0.202932 -0.31411743 -0.80178416 2
0.2034893 -0.31387764 -0.7946184 2
0.20311356 -0.3132854 -0.7873465 2
0.20365477 -0.31304252 -0.78022695 2
0.20418894 -0.31279826 -0.77312785 2
0.20471585 -0.31255263 -0.7660493 2
0.20616889 -0.31265807 -0.75909746 2
0.2066834 -0.31241 -0.7520548 2
0.20719063 -0.3121606 -0.74503267 2
0.2095679 -0.31261683 -0.73821265 2
0.21100473 -0.31271917 -0.7313069 2
0.2124381 -0.31282085 -0.72441155 2
0.21481168 -0.3132763 -0.7176018 2
0.21623969 -0.31337696 -0.7107217 2
0.21766412 -0.31347692 -0.70385194 2
0.22003412 -0.3139317 -0.69705236 2
0.22240424 -0.31438655 -0.6902529 2
0.22477424 -0.31484133 -0.6834534 2
0.22714436 -0.3152961 -0.67665386 2
0.23047078 -0.31610787 -0.66989386 2
0.23284268 -0.316563 -0.6630893 2
0.23521447 -0.31701815 -0.6562846 2
0.23854804 -0.31783122 -0.6495041 2
0.2418853 -0.318645 -0.6427133 2
0.24619138 -0.31981808 -0.63592625 2
0.2505046 -0.32099253 -0.6291187 2
0.254825 -0.32216835 -0.6222905 2
0.26012325 -0.32370526 -0.61544037 2
0.26445973 -0.32488412 -0.60856605 2
0.26977766 -0.32642478 -0.60165954 2
0.27608228 -0.32832813 -0.59470534 2
0.28240132 -0.33023423 -0.58771014 2
0.28873456 -0.33214307 -0.5806739 2
0.2950821 -0.33405465 -0.5735966 2
0.30144405 -0.33596897 -0.5664783 2
0.3078202 -0.3378861 -0.559319 2
0.31519747 -0.34016865 -0.552071 2
0.3235811 -0.34281772 -0.544719 1
0.3319863 -0.3454709 -0.5373055 1
0.33644426 -0.34667313 -0.53008246 1
0.34190345 -0.34824085 -0.5227709 1
0.348369 -0.35017508 -0.5153551 1
0.35484874 -0.35211205 -0.50789845 1
0.36633945 -0.35587752 -0.49998298 1
0.63459 -0.5556252 -1.9061651 1
0.60484207 -0.5420472 -1.869282 1
0.5764706 -0.52909106 -1.8340055 1
0.5571735 -0.52002245 -1.80603 1
0.54393315 -0.51354694 -1.7829016 1
0.5298419 -0.5067293 -1.7594365 1
0.5164424 -0.5002233 -1.7367644 1
0.5037403 -0.49402994 -1.7148701 1
0.4932959 -0.48880637 -1.6948317 1
0.48278725 -0.48357046 -1.674978 1
0.47299552 -0.478651 -1.6558455 1
0.46392596 -0.47404897 -1.637419 1
0.4563688 -0.47009486 -1.6202092 2
0.44797492 -0.4658013 -1.6026218 2
0.43873918 -0.4611674 -1.584672 2
0.43102646 -0.45718342 -1.5679084 2
0.4240557 -0.45352072 -1.5517943 2
0.41624475 -0.4495179 -1.5353127 2
0.4091792 -0.44583696 -1.5194702 2
0.4020673 -0.44214714 -1.5037612 2
0.39410973 -0.4381162 -1.4877001 2
0.38690305 -0.4344082 -1.4722629 2
0.3804525 -0.43102413 -1.4574339 2
0.3747636 -0.4279651 -1.4431981 2
0.36822903 -0.42456496 -1.4286103 2
0.36326778 -0.4218244 -1.4150649 2
0.35746086 -0.41874266 -1.4011675 2
0.3516146 -0.41565347 -1.387383 2
0.34654236 -0.41289163 -1.3741555 2
0.34224963 -0.4104582 -1.36147 2
0.33792484 -0.4080186 -1.3488766 2
0.33356774 -0.40557283 -1.3363755 2
0.32917845 -0.40312088 -1.3239667 2
0.3255794 -0.40099943 -1.3120692 2
0.32195163 -0.39887244 -1.3002534 2
0.31829536 -0.39674002 -1.2885197 2
0.31543815 -0.39493978 -1.2772715 2
0.31255603 -0.3931347 -1.266095 2
0.30964875 -0.39132488 -1.2549903 2
0.30671644 -0.3895102 -1.2439574 2
0.30375922 -0.38769078 -1.2329962 2
0.30161357 -0.3862059 -1.2224846 2
0.29944646 -0.384717 -1.2120346 2
0.29725778 -0.3832239 -1.201646 2
0.29420578 -0.38138622 -1.1909566 2
0.29197252 -0.3798846 -1.1806962 2
0.28887224 -0.3780377 -1.1701454 2
0.2865944 -0.3765275 -1.1600132 2
0.28344584 -0.37467128 -1.1496007 2
0.28027225 -0.37281036 -1.13926 2
0.27792645 -0.3712871 -1.1293228 2
0.27555907 -0.36975968 -1.119447 2
0.27317035 -0.3682282 -1.1096327 2
0.27076006 -0.3666926 -1.09988 2
0.26832843 -0.36515284 -1.0901889 2
0.26587534 -0.36360902 -1.0805591 2
0.2634008 -0.36206102 -1.070991 2
0.2609048 -0.36050892 -1.0614845 2
0.25838733 -0.35895276 -1.0520394 2
0.2558484 -0.35739243 -1.042656 2
0.25328815 -0.355828 -1.0333339 2
0.25070632 -0.35425943 -1.0240735 2
0.24810302 -0.35268682 -1.0148745 2
0.24547839 -0.35111004 -1.0057372 2
0.24283218 -0.34952915 -0.9966613 2
0.24016464 -0.34794414 -0.987647 2
0.23835695 -0.346703 -0.9789437 2
0.23564816 -0.34511006 -0.9700473 2
0.23291802 -0.34351307 -0.9612125 2
0.23105311 -0.3422609 -0.95267326 2
0.22828186 -0.34065598 -0.9439564 2
0.2263794 -0.33939666 -0.9355248 2
0.22445905 -0.33813393 -0.9271446 2
0.22252083 -0.33686775 -0.9188156 2
0.21966922 -0.3352474 -0.91032946 2
0.21769345 -0.333974 -0.9021082 2
0.21569979 -0.33269715 -0.8939382 2
0.21368837 -0.3314169 -0.8858195 2
0.21165895 -0.33013326 -0.87775207 2
0.20961177 -0.3288461 -0.86973584 2
0.20845294 -0.32790834 -0.86194867 2
0.20727992 -0.32696784 -0.8542025 2
0.2060926 -0.3260246 -0.84649736 2
0.20397913 -0.3247248 -0.8386709 2
0.20367491 -0.32412982 -0.83121014 2
0.20335996 -0.32353282 -0.82378006 2
0.20211709 -0.32257897 -0.81623393 2
0.20177889 -0.3219775 -0.80887055 2
0.20142996 -0.321374 -0.80153793 2
0.20107031 -0.32076842 -0.7942362 2
0.20069993 -0.32016075 -0.7869651 2
0.20124483 -0.3199076 -0.7798461 2
0.20178246 -0.3196531 -0.7727476 2
0.20231307 -0.3193972 -0.7656696 2
0.2037679 -0.31949753 -0.758718 2
0.20428598 -0.31923926 -0.75167596 2
0.20573175 -0.31933784 -0.74475 2
0.20717406 -0.31943578 -0.73783433 2
0.2086128 -0.319533 -0.7309289 2
0.21004784 -0.31962955 -0.72403383 2
0.21242154 -0.32008505 -0.71722406 2
0.21385133 -0.32018054 -0.71034425 2
0.21527743 -0.32027537 -0.70347476 2
0.21764755 -0.3207302 -0.69667524 2
0.22001755 -0.321185 -0.6898757 2
0.22238767 -0.32163984 -0.68307626 2
0.22571051 -0.3224563 -0.676321 2
0.22808242 -0.32291144 -0.66951644 2
0.23141062 -0.32372898 -0.66274595 2
0.2337842 -0.32418448 -0.6559362 2
0.23711789 -0.32500303 -0.64915025 2
0.24045503 -0.3258223 -0.6423541 2
0.24379575 -0.32664222 -0.63554776 2
0.2481054 -0.32782692 -0.62873954 2
0.2524222 -0.329013 -0.62191075 2
0.257715 -0.3305652 -0.6150598 2
0.2630186 -0.33211952 -0.608178 2
0.26736045 -0.33331037 -0.6012776 2
0.27365792 -0.33523422 -0.5943222 2
0.2799697 -0.3371609 -0.5873259 2
0.28629577 -0.33909023 -0.58028847 2
0.29263616 -0.3410223 -0.57321006 2
0.2980094 -0.34258997 -0.5661284 2
0.3043766 -0.34452724 -0.558973 2
0.31174302 -0.34683508 -0.55172884 2
0.32011414 -0.3495146 -0.5443801 1
0.32751822 -0.35182965 -0.53702825 1
0.3329594 -0.35341036 -0.52975166 1
0.33741915 -0.35462385 -0.5225127 1
0.34486783 -0.35694748 -0.5150325 1
0.35133874 -0.35890466 -0.50757986 1
0.36680126 -0.36419696 -0.4993316 1
0.6275985 -0.5655418 -1.9031912 1
0.6009759 -0.55306005 -1.8686711 1
0.5711498 -0.5392263 -1.8322517 1
0.5519031 -0.53000325 -1.8042951 1
0.54023623 -0.52407795 -1.7823174 1
0.52464545 -0.516478 -1.7577349 1
0.5105097 -0.50952595 -1.7345225 1
0.49861407 -0.5035568 -1.7132012 1
0.4874227 -0.49790704 -1.6926316 1
0.4769411 -0.4925778 -1.6727984 1
0.46717453 -0.48757017 -1.6536862 1
0.4596908 -0.48355353 -1.6363419 1
0.4505911 -0.4788581 -1.6180891 2
0.4422189 -0.4744867 -1.6005213 2
0.4345796 -0.4704402 -1.5836232 2
0.42610204 -0.46604854 -1.566358 2
0.41915107 -0.46231848 -1.5502577 2
0.4113617 -0.4582432 -1.5337903 2
0.40352237 -0.4541583 -1.5174665 2
0.39642847 -0.45040077 -1.5017766 2
0.38928795 -0.44663435 -1.4862199 2
0.38210118 -0.44285905 -1.4707966 2
0.37566864 -0.43941277 -1.4559815 2
0.36919332 -0.43595827 -1.4412892 2
0.36347938 -0.43283427 -1.4271848 2
0.35853255 -0.43004173 -1.4136525 2
0.35274184 -0.42690295 -1.3997686 2
0.3469118 -0.42375666 -1.3859973 2
0.34266567 -0.4212829 -1.3732271 2
0.337574 -0.41846257 -1.3601103 2
0.33326173 -0.41597617 -1.3475296 2
0.32891726 -0.41348356 -1.3350415 2
0.32535934 -0.41132623 -1.3230691 2
0.32177293 -0.40916342 -1.3111788 2
0.3181578 -0.40699512 -1.2993705 2
0.31533825 -0.40516376 -1.2880524 2
0.31249368 -0.40332764 -1.2768061 2
0.3087963 -0.40114355 -1.2652338 2
0.30589998 -0.39929748 -1.2541362 2
0.30380976 -0.39779043 -1.2434981 2
0.30086505 -0.39593506 -1.2325389 2
0.29873013 -0.3944195 -1.222029 2
0.29573727 -0.39255488 -1.2112083 2
0.29355764 -0.39103067 -1.2008266 2
0.2905165 -0.38915682 -1.1901443 2
0.28829217 -0.38762403 -1.1798909 2
0.2860465 -0.38608718 -1.1696988 2
0.28293383 -0.38419956 -1.1592216 2
0.28064346 -0.38265413 -1.1491579 2
0.27833164 -0.38110453 -1.1391556 2
0.27599835 -0.37955087 -1.1292149 2
0.2727909 -0.37764508 -1.1190095 2
0.27041292 -0.37608284 -1.109197 2
0.26886976 -0.3748651 -1.0997618 2
0.26645076 -0.37329495 -1.0900673 2
0.2640102 -0.37172067 -1.0804341 2
0.26154828 -0.37014228 -1.0708627 2
0.2590648 -0.36855978 -1.0613526 2
0.25655997 -0.36697316 -1.0519042 2
0.25403368 -0.36538243 -1.0425172 2
0.25148594 -0.3637876 -1.0331918 2
0.24891675 -0.36218864 -1.0239279 2
0.24632609 -0.36058557 -1.0147256 2
0.24371397 -0.35897833 -1.0055847 2
0.2410804 -0.35736704 -0.9965055 2
0.23842537 -0.35575163 -0.9874878 2
0.23574889 -0.35413206 -0.9785316 2
0.23393226 -0.35286182 -0.96988094 2
0.23121476 -0.35123444 -0.9610427 2
0.22847569 -0.34960288 -0.952266 2
0.22660196 -0.34832168 -0.94377947 2
0.22382188 -0.34668225 -0.9351207 2
0.22191048 -0.34539384 -0.92674184 2
0.21998131 -0.34410203 -0.91841435 2
0.21803415 -0.34280676 -0.910138 2
0.21606922 -0.34150803 -0.90191305 2
0.21408641 -0.34020597 -0.89373934 2
0.21118653 -0.33854353 -0.88542414 2
0.21006715 -0.3375914 -0.8775458 2
0.2080307 -0.33627903 -0.8695259 2
0.20597637 -0.3349632 -0.8615573 2
0.2048105 -0.33400214 -0.8538123 2
0.20363033 -0.3330384 -0.84610826 2
0.20243585 -0.3320719 -0.8384453 2
0.20122707 -0.3311026 -0.8308233 2
0.20091748 -0.33049023 -0.8233941 2
0.20059717 -0.32987583 -0.8159957 2
0.19934916 -0.32889903 -0.8084866 2
0.1990056 -0.3282801 -0.80115485 2
0.19865131 -0.3276592 -0.7938539 2
0.1982863 -0.32703614 -0.78658366 2
0.19883478 -0.32677275 -0.7794652 2
0.1993761 -0.326508 -0.7723673 2
0.20083809 -0.3266042 -0.76540065 2
0.2013669 -0.32633704 -0.75833863 2
0.20188856 -0.32606846 -0.75129706 2
0.20333612 -0.32616198 -0.7443715 2
0.20478022 -0.32625479 -0.7374561 2
0.20622075 -0.32634687 -0.73055094 2
0.2076577 -0.32643825 -0.7236561 2
0.21003127 -0.32689375 -0.71684635 2
0.21146286 -0.32698417 -0.70996684 2
0.21383476 -0.3274393 -0.7031622 2
0.21620655 -0.32789445 -0.69635755 2
0.21857846 -0.3283496 -0.6895529 2
0.22095025 -0.32880473 -0.68274826 2
0.22332215 -0.32925993 -0.6759436 2
0.22664678 -0.33008224 -0.669178 2
0.22902036 -0.33053768 -0.66236824 2
0.23235047 -0.33136106 -0.65558714 2
0.23472583 -0.3318169 -0.64877224 2
0.23806119 -0.33264124 -0.6419758 2
0.2423619 -0.33383518 -0.6351824 2
0.24666977 -0.3350305 -0.62836856 2
0.25098467 -0.33622718 -0.62153417 2
0.25627398 -0.33779514 -0.61467713 2
0.26060498 -0.33899486 -0.6077966 2
0.26591384 -0.34056664 -0.6008832 2
0.27220595 -0.34251136 -0.59392166 2
0.27753806 -0.34408754 -0.5869416 2
0.283857 -0.3460374 -0.57990307 2
0.2901901 -0.34798998 -0.5728235 2
0.29653764 -0.34994537 -0.565703 2
0.30191803 -0.3515308 -0.5585845 2
0.3092754 -0.3538643 -0.5513389 2
0.31665087 -0.35620123 -0.54404175 2
0.324044 -0.35854155 -0.5366936 1
0.32947803 -0.36013728 -0.52942127 1
0.3349228 -0.3617351 -0.52211815 1
0.34335458 -0.3644591 -0.5145627 1
0.35081387 -0.3668121 -0.50702477 1
0.36326957 -0.37104553 -0.49901497 1
0.62518 -0.57743096 -1.9037435 1
0.5971098 -0.56407297 -1.8680601 1
0.5704162 -0.55135876 -1.8339616 1
0.5497005 -0.54131 -1.8048491 1
0.53500557 -0.53393495 -1.7805996 1
0.5202248 -0.5265435 -1.7565961 1
0.50535834 -0.51913553 -1.7328387 1
0.493495 -0.51306313 -1.7115334 1
0.48310828 -0.5076536 -1.6915258 1
0.47265732 -0.5022318 -1.6717029 1
0.4629196 -0.4971366 -1.6526005 1
0.45390046 -0.49236912 -1.6342036 2
0.4448241 -0.48759067 -1.6159706 2
0.43725657 -0.48348135 -1.5989431 2
0.42885423 -0.47902203 -1.5815437 2
0.42118478 -0.47489315 -1.5648086 2
0.41346538 -0.47075462 -1.548217 2
0.40648592 -0.46694797 -1.5322692 2
0.39866817 -0.4627906 -1.5159597 2
0.39080036 -0.4586237 -1.4997938 2
0.38367796 -0.45478958 -1.4842561 2
0.37730646 -0.45128936 -1.4693315 2
0.37089193 -0.44778085 -1.45453 2
0.3644346 -0.44426417 -1.4398515 2
0.35953963 -0.44142687 -1.4262247 2
0.35380447 -0.43823856 -1.4122413 2
0.34883618 -0.43538725 -1.3988247 2
0.34302425 -0.43218416 -1.3850617 2
0.33879256 -0.42966396 -1.3722992 2
0.33452857 -0.42713755 -1.3596289 2
0.32941914 -0.42425913 -1.3466175 2
0.32590425 -0.42206627 -1.3345654 2
0.32236075 -0.41986787 -1.3225952 2
0.31878877 -0.41766405 -1.3107072 2
0.31518805 -0.41545475 -1.2989012 2
0.31155872 -0.4132399 -1.2871773 2
0.308725 -0.41136754 -1.275938 2
0.30586612 -0.4094904 -1.2647707 2
0.30298233 -0.40760845 -1.2536752 2
0.3000735 -0.40572166 -1.2426513 2
0.2979709 -0.4041794 -1.2320817 2
0.2950138 -0.40228337 -1.2211962 2
0.29286647 -0.40073252 -1.2107546 2
0.2906977 -0.39917755 -1.2003746 2
0.28766906 -0.39726782 -1.1896944 2
0.28545558 -0.39570427 -1.1794426 2
0.28322077 -0.3941366 -1.1692523 2
0.2801206 -0.39221317 -1.1587772 2
0.2778411 -0.39063692 -1.148715 2
0.27554 -0.38905662 -1.1387146 2
0.27321756 -0.38747215 -1.1287754 2
0.27087367 -0.38588357 -1.1188979 2
0.26850832 -0.38429093 -1.109082 2
0.26697588 -0.38304788 -1.0996431 2
0.2645694 -0.38144732 -1.0899451 2
0.26214147 -0.37984264 -1.0803086 2
0.25969207 -0.3782338 -1.0707335 2
0.25722134 -0.3766209 -1.0612202 2
0.25472903 -0.37500387 -1.0517683 2
0.2530805 -0.37373853 -1.0426627 2
0.24968016 -0.37175745 -1.0330491 2
0.24712348 -0.37012804 -1.0237818 2
0.24454546 -0.36849457 -1.014576 2
0.24194586 -0.36685693 -1.0054318 2
0.23932493 -0.36521518 -0.9963491 2
0.23668253 -0.36356938 -0.98732793 2
0.23401868 -0.3619194 -0.97836834 2
0.23133337 -0.3602653 -0.96947026 2
0.2295078 -0.35896605 -0.96087235 2
0.22678137 -0.35730404 -0.9520922 2
0.22491837 -0.35599756 -0.94360197 2
0.22303748 -0.35468763 -0.935163 2
0.22025037 -0.35301405 -0.9265573 2
0.21744168 -0.3513363 -0.918013 2
0.21550357 -0.3500154 -0.9097382 2
0.2135477 -0.34869105 -0.90151453 2
0.21157384 -0.3473633 -0.89334226 2
0.20958209 -0.34603214 -0.88522124 2
0.20757258 -0.34469754 -0.8771516 2
0.20554507 -0.34335947 -0.8691331 2
0.2034998 -0.342018 -0.86116594 2
0.20234108 -0.3410365 -0.85342205 2
0.20116818 -0.3400522 -0.84571916 2
0.19998085 -0.3390652 -0.83805734 2
0.19968915 -0.33843982 -0.8305931 2
0.19847512 -0.33744764 -0.8230082 2
0.19816017 -0.33681786 -0.81561065 2
0.19783461 -0.336186 -0.8082439 2
0.1974982 -0.33555204 -0.80090785 2
0.19715106 -0.33491606 -0.7936026 2
0.19679332 -0.334278 -0.7863281 2
0.19734716 -0.3340047 -0.7792051 2
0.19696975 -0.33336288 -0.771987 2
0.1984334 -0.33345395 -0.76502067 2
0.1989659 -0.3331765 -0.7579592 2
0.20042062 -0.3332659 -0.7510184 2
0.20094061 -0.33298606 -0.7439929 2
0.2023865 -0.33307374 -0.7370778 2
0.20382869 -0.3331607 -0.73017293 2
0.20526743 -0.333247 -0.7232784 2
0.20764112 -0.3337025 -0.71646863 2
0.2090745 -0.33378774 -0.70958936 2
0.21144629 -0.33424288 -0.7027847 2
0.21381819 -0.33469802 -0.69598013 2
0.21618998 -0.33515322 -0.6891755 2
0.21856189 -0.33560836 -0.68237084 2
0.22188294 -0.33643544 -0.67561 2
0.22520757 -0.33726323 -0.66883886 2
0.22758305 -0.33771908 -0.662024 2
0.23091304 -0.3385479 -0.65523756 2
0.2332902 -0.33900404 -0.64841753 2
0.23758376 -0.34020758 -0.6416338 2
0.24092448 -0.3410384 -0.6348166 2
0.24523044 -0.34224433 -0.627997 2
0.24954367 -0.34345162 -0.62115693 2
0.2548293 -0.3450353 -0.614294 2
0.26012552 -0.34662104 -0.60740024 2
0.26446378 -0.3478331 -0.60048836 2
0.2697798 -0.34942257 -0.5935382 2
0.27607894 -0.3513906 -0.58653444 2
0.28239238 -0.3533613 -0.5794897 2
0.28774416 -0.35495764 -0.572437 2
0.29408443 -0.35693353 -0.5653153 2
0.29945934 -0.35853434 -0.558196 2
0.30680788 -0.3608935 -0.55094886 2
0.31417418 -0.36325604 -0.5436504 2
0.32155848 -0.36562204 -0.5363008 2
0.32797372 -0.3676123 -0.52896374 2
0.3344034 -0.3696053 -0.52158564 2
0.34282804 -0.3723607 -0.5140183 1
0.351274 -0.37512022 -0.50638944 1
0.36073542 -0.37826443 -0.49861455 1
0.6227542 -0.5893407 -1.9042948 1
0.5932437 -0.5750859 -1.8674492 1
0.56814516 -0.56284934 -1.8345156 1
0.545964 -0.55195373 -1.8042586 1
0.5313122 -0.54445565 -1.780016 1
0.51580787 -0.53659874 -1.7554578 1
0.50098276 -0.5290674 -1.7317125 1
0.48915362 -0.52289206 -1.710418 1
0.47802532 -0.51704645 -1.6898745 1
0.4683771 -0.51187545 -1.6706079 1
0.45789242 -0.5063486 -1.6509798 1
0.44889843 -0.50149846 -1.6325976 2
0.43984735 -0.49663728 -1.6143794 2
0.43152034 -0.4921103 -1.5968459 2
0.42392254 -0.48791856 -1.5799813 2
0.41549003 -0.48337138 -1.5627503 2
0.40857685 -0.47950625 -1.5466831 2
0.40082896 -0.4752857 -1.5302494 2
0.39382124 -0.47140247 -1.5144539 2
0.3851831 -0.46681577 -1.4978125 2
0.3788724 -0.4632616 -1.4827785 2
0.3717234 -0.45935124 -1.4673883 2
0.36612248 -0.45612848 -1.4530797 2
0.36048222 -0.45289814 -1.4388841 2
0.3548026 -0.4496603 -1.4248012 2
0.3498863 -0.44676423 -1.4112902 2
0.34493423 -0.44386125 -1.3978815 2
0.3399465 -0.4409514 -1.3845754 2
0.33492303 -0.43803477 -1.371372 2
0.33067346 -0.43546188 -1.3587093 2
0.32639182 -0.4328828 -1.3461392 2
0.32289135 -0.43064892 -1.3340893 2
0.31854713 -0.42805785 -1.3216984 2
0.31498766 -0.42581266 -1.3098178 2
0.3122183 -0.42391437 -1.2984319 2
0.30942392 -0.42201126 -1.2871178 2
0.3057822 -0.41975027 -1.2754731 2
0.30293596 -0.4178372 -1.2643077 2
0.3000648 -0.41591936 -1.2532141 2
0.2971685 -0.4139967 -1.2421923 2
0.29507673 -0.41242367 -1.2316242 2
0.29213226 -0.41049176 -1.2207409 2
0.28999567 -0.40891016 -1.210301 2
0.28783774 -0.40732443 -1.1999227 2
0.28482175 -0.40537882 -1.1892445 2
0.28261912 -0.4037845 -1.1789943 2
0.2803949 -0.4021861 -1.1688057 2
0.2781495 -0.40058357 -1.1586787 2
0.27503872 -0.39861977 -1.1482723 2
0.27274847 -0.39700866 -1.1382734 2
0.27043676 -0.39539343 -1.128336 2
0.2681036 -0.3937741 -1.1184602 2
0.2666 -0.39250922 -1.1089664 2
0.26422572 -0.39088202 -1.0992085 2
0.2618301 -0.3892507 -1.0895121 2
0.26026917 -0.3879748 -1.0801824 2
0.2578324 -0.38633555 -1.0706041 2
0.25537407 -0.38469225 -1.0610871 2
0.25375605 -0.3834054 -1.0519215 2
0.2512567 -0.38175416 -1.0425227 2
0.2487359 -0.38009882 -1.0331852 2
0.24619365 -0.37843937 -1.0239093 2
0.24362993 -0.3767758 -1.014695 2
0.24104476 -0.37510806 -1.0055423 2
0.23756588 -0.37307364 -0.9961922 2
0.234936 -0.37139738 -0.9871676 2
0.23316073 -0.3700803 -0.97845316 2
0.23048973 -0.36839616 -0.96954656 2
0.22779739 -0.36670792 -0.96070147 2
0.22508347 -0.3650155 -0.9519179 2
0.22234821 -0.36331898 -0.9431958 2
0.22047639 -0.36198348 -0.9347583 2
0.21769989 -0.36027908 -0.92615426 2
0.21579051 -0.3589363 -0.9178244 2
0.21386325 -0.35759014 -0.90954584 2
0.21191812 -0.3562405 -0.90131855 2
0.20995498 -0.3548875 -0.8931426 2
0.20707858 -0.35316384 -0.88482565 2
0.2059753 -0.35217106 -0.8769444 2
0.20395863 -0.3508078 -0.8689223 2
0.20192409 -0.349441 -0.8609514 2
0.20077443 -0.34843928 -0.85320354 2
0.19961047 -0.34743488 -0.84549665 2
0.1984322 -0.34642768 -0.83783084 2
0.19814765 -0.3457873 -0.8303623 2
0.19694257 -0.34477496 -0.8227734 2
0.19663489 -0.3441301 -0.8153716 2
0.19631636 -0.34348315 -0.80800056 2
0.19507205 -0.3424633 -0.8005244 2
0.19473028 -0.3418119 -0.79322004 2
0.19529676 -0.34153008 -0.78607196 2
0.19493532 -0.3408749 -0.778824 2
0.19548571 -0.34059 -0.7717221 2
0.19602883 -0.34030366 -0.7646407 2
0.19749081 -0.34038895 -0.7576848 2
0.19802141 -0.34010023 -0.7506393 2
0.19947445 -0.3401838 -0.74370915 2
0.20092392 -0.3402667 -0.73678917 2
0.20236981 -0.3403489 -0.7298795 2
0.20381212 -0.34043038 -0.72298 2
0.2061876 -0.34088624 -0.7161651 2
0.20762455 -0.3409667 -0.70928115 2
0.20905793 -0.3410465 -0.7024073 2
0.21237183 -0.3418777 -0.6956616 2
0.2147454 -0.3423332 -0.68885183 2
0.2171191 -0.3427887 -0.68204206 2
0.22044015 -0.34362125 -0.6752758 2
0.22281551 -0.3440771 -0.66846085 2
0.22614193 -0.34491068 -0.66167927 2
0.22947192 -0.34574497 -0.65488744 2
0.23185098 -0.34620148 -0.6480622 2
0.23614264 -0.34741557 -0.64127284 2
0.23948336 -0.34825194 -0.63445026 2
0.24378753 -0.3494684 -0.627625 2
0.24809897 -0.3506863 -0.62077916 2
0.2533809 -0.35228568 -0.6139102 2
0.25867367 -0.35388714 -0.60701054 2
0.26397705 -0.35549068 -0.6000801 2
0.26929128 -0.35709625 -0.5931188 2
0.27461612 -0.3587039 -0.5861268 2
0.2809242 -0.36069542 -0.57907575 2
0.2862723 -0.36230755 -0.5720171 2
0.2926072 -0.36430424 -0.56488913 2
0.29797864 -0.36592078 -0.55776376 2
0.30434024 -0.36792266 -0.5505589 2
0.31071627 -0.3699273 -0.543313 2
0.31907284 -0.37270248 -0.535908 2
0.32646596 -0.3750975 -0.5285057 2
0.33387685 -0.377496 -0.52105206 2
0.34229422 -0.38028288 -0.5134726 1
0.3517233 -0.38345915 -0.50575227 1
0.35621703 -0.38471204 -0.49838337 1
0.614272 -0.5985041 -1.9001507 1
0.58937764 -0.5860988 -1.8668382 1
0.56586695 -0.5743605 -1.8350686 1
0.54527354 -0.563985 -1.8059539 1
0.5291456 -0.5556708 -1.7805648 1
0.51368964 -0.5476864 -1.7560036 1
0.4981445 -0.5396848 -1.7316988 1
0.4855845 -0.533059 -1.7098539 1
0.4744904 -0.527116 -1.6893159 1
0.46332836 -0.52115995 -1.6689727 1
0.45364642 -0.51588947 -1.6498955 1
0.44467962 -0.5109569 -1.6315231 2
0.43410027 -0.5053134 -1.6122642 2
0.42657423 -0.5010588 -1.5952703 2
0.41821694 -0.49644393 -1.577905 2
0.41058898 -0.4921698 -1.5612035 2
0.40291095 -0.48788607 -1.5446455 2
0.3959694 -0.48394436 -1.5287308 2
0.38898146 -0.47999376 -1.5129492 2
0.3811568 -0.4756819 -1.4968119 2
0.3740741 -0.47171307 -1.4813021 2
0.3677386 -0.46808845 -1.4664049 2
0.36215568 -0.46480894 -1.4521047 2
0.3565334 -0.46152192 -1.4379172 2
0.35167086 -0.4585814 -1.4243064 2
0.3459717 -0.4552796 -1.4103395 2
0.34103596 -0.45232505 -1.3969388 2
0.33606434 -0.4493636 -1.3836408 2
0.33186316 -0.4467507 -1.3708885 2
0.32762992 -0.44413173 -1.3582284 2
0.3233645 -0.4415065 -1.3456607 2
0.31906676 -0.43887514 -1.3331853 2
0.31555033 -0.43659443 -1.3212249 2
0.31282043 -0.43466538 -1.3097641 2
0.30924857 -0.432374 -1.2979627 2
0.3056481 -0.43007714 -1.2862432 2
