ply
format ascii 1.0
comment v20 pointcloud — conf>=1, radius=1.7m, n=9261
element vertex 1348
property float x
property float y
property float z
property uchar confidence
end_header
0.3730092 -0.18480043 -1.0563579 1
0.37024128 -0.18402027 -1.046777 1
0.36928952 -0.18368007 -1.037809 1
0.3664825 -0.18289207 -1.028341 1
0.36365426 -0.18209977 -1.0189346 1
0.35895646 -0.18085675 -1.0090693 1
0.35515618 -0.17983161 -0.9995412 1
0.35411382 -0.17947315 -0.9908349 2
0.3521279 -0.17888759 -0.9819248 2
0.35012412 -0.17829843 -0.97306585 2
0.34903562 -0.1779307 -0.9644929 2
0.34793282 -0.1775601 -0.955961 2
0.34681594 -0.17718665 -0.9474702 2
0.34474647 -0.17658429 -0.93880117 2
0.34453928 -0.17643113 -0.9306116 2
0.3443216 -0.17627586 -0.9224528 2
0.34409308 -0.17611845 -0.91432476 2
0.34385407 -0.17595889 -0.9062276 2
0.34360433 -0.17579718 -0.8981611 2
0.34429276 -0.17586152 -0.89031386 2
0.3440236 -0.17569588 -0.88230383 2
0.34469604 -0.175757 -0.8745028 2
0.3444072 -0.17558743 -0.86654925 2
0.3450638 -0.17564534 -0.85879433 2
0.34571326 -0.17570181 -0.85106 2
0.3473152 -0.1759872 -0.8435037 2
0.34795213 -0.1760412 -0.83580524 2
0.34858203 -0.17609371 -0.8281274 2
0.3482399 -0.17591344 -0.8203277 2
0.34885383 -0.17596273 -0.8126959 2
0.34946072 -0.17601065 -0.8050847 2
0.35006034 -0.17605709 -0.797494 2
0.35065305 -0.17610215 -0.7899238 2
0.3512385 -0.17614575 -0.78237414 2
0.3527925 -0.17642148 -0.77495646 2
0.35434282 -0.1766965 -0.76754904 2
0.35588968 -0.17697082 -0.76015186 2
0.35743308 -0.17724438 -0.75276494 2
0.35799015 -0.17728226 -0.7452974 2
0.3595245 -0.17755409 -0.7379361 2
0.36105537 -0.17782517 -0.7305851 2
0.36258268 -0.17809553 -0.72324437 2
0.36410654 -0.17836519 -0.7159139 2
0.36661828 -0.17887093 -0.70865893 2
0.36813676 -0.17913951 -0.70134383 2
0.37164187 -0.17988239 -0.694149 2
0.3741536 -0.18038811 -0.68689406 2
0.37566674 -0.18065564 -0.6795944 2
0.3781767 -0.181161 -0.67234457 2
0.37968445 -0.18142746 -0.6650602 2
0.38219273 -0.18193246 -0.6578156 2
0.38570666 -0.18267713 -0.65059507 2
0.38821673 -0.1831825 -0.64334524 2
0.39274538 -0.18416859 -0.63612336 2
0.39728117 -0.18515612 -0.6288809 2
0.40283692 -0.18638615 -0.62162167 2
0.40941787 -0.18785976 -0.61433023 2
0.41499674 -0.18909447 -0.6070043 2
0.4185499 -0.18984698 -0.5996709 1
0.41904652 -0.18987273 -0.5923778 1
0.42362309 -0.19086845 -0.5850173 1
0.43230104 -0.19283856 -0.57752806 1
0.44100022 -0.19481294 -0.56997716 1
0.59502447 -0.2570004 -1.7134731 1
0.5837426 -0.25396156 -1.6934323 1
0.57569504 -0.25174445 -1.6757448 1
0.5675976 -0.24951728 -1.6582007 1
0.5594505 -0.24728014 -1.6408005 1
0.5520835 -0.24524264 -1.6240706 1
0.54467034 -0.2431959 -1.6074743 1
0.53971124 -0.24177112 -1.5925608 1
0.5355518 -0.24055 -1.5782613 1
0.5313604 -0.23932244 -1.564054 1
0.5279758 -0.23829995 -1.5504403 1
0.5245627 -0.23727171 -1.5369086 1
0.5194366 -0.23581333 -1.5224774 1
0.5142751 -0.2343478 -1.5081489 1
0.5099237 -0.23308803 -1.4944034 1
0.5055405 -0.23182185 -1.4807503 1
0.50367343 -0.23119016 -1.4686006 1
0.500934 -0.2303402 -1.4560473 1
0.4973166 -0.2292708 -1.4431057 1
0.49110663 -0.2275516 -1.4288814 1
0.48400104 -0.22560938 -1.4143202 1
0.4785695 -0.22408946 -1.4007715 1
0.47482252 -0.22299401 -1.3882045 1
0.4693234 -0.22146054 -1.3748507 1
0.46378875 -0.21991988 -1.3615996 1
0.45735312 -0.21815522 -1.3480269 1
0.4508785 -0.21638267 -1.3345671 1
0.4443648 -0.21460225 -1.3212202 1
0.4412949 -0.21368574 -1.3096211 1
0.43558252 -0.21210934 -1.2968831 1
0.42983472 -0.21052577 -1.2842476 1
0.4266796 -0.20959209 -1.2728949 1
0.42174387 -0.20821466 -1.2608376 1
0.41589665 -0.20661108 -1.2484894 1
0.40825105 -0.20456015 -1.2354879 1
0.4032123 -0.20316197 -1.2237282 1
0.39814162 -0.20175736 -1.2120607 1
0.39481235 -0.20078866 -1.2012107 1
0.39234662 -0.20003642 -1.1907902 1
0.38985968 -0.19927992 -1.180431 1
0.3873514 -0.19851916 -1.1701335 1
0.38392806 -0.19753148 -1.1595554 1
0.3795842 -0.19631581 -1.1487124 1
0.37700665 -0.19554107 -1.138615 1
0.37350857 -0.19453837 -1.1282525 1
0.3726884 -0.19420274 -1.1189264 1
0.3709514 -0.19363986 -1.1093249 1
0.36919665 -0.1930734 -1.0997748 1
0.36833036 -0.19272844 -1.0905821 1
0.3647257 -0.19170429 -1.0805275 1
0.36200607 -0.19090094 -1.0708406 1
0.3592651 -0.1900933 -1.0612152 1
0.35741615 -0.18950789 -1.051937 2
0.3564645 -0.18914576 -1.0429906 2
0.3554988 -0.18878083 -1.0340853 2
0.35360003 -0.18818538 -1.0249507 2
0.35168362 -0.18758638 -1.0158675 2
0.34882724 -0.18675546 -1.0065756 2
0.3477975 -0.18637763 -0.99785495 2
0.3458277 -0.1857679 -0.98892564 2
0.34384024 -0.18515457 -0.98004764 2
0.34276426 -0.18476744 -0.9714604 2
0.3416742 -0.18437745 -0.9629142 2
0.34056985 -0.18398456 -0.954409 2
0.3394513 -0.18358885 -0.9459449 2
0.33831847 -0.18319027 -0.9375219 2
0.33717155 -0.1827888 -0.92913985 2
0.33601034 -0.18238448 -0.9207989 2
0.3357768 -0.18220957 -0.91270244 2
0.3345889 -0.1817999 -0.9044385 2
0.33433223 -0.18162031 -0.8964088 2
0.33406484 -0.18143861 -0.88840985 2
0.33378685 -0.18125473 -0.8804417 2
0.3344488 -0.18130277 -0.8726822 2
0.33510363 -0.18134938 -0.86494327 2
0.3357514 -0.18139453 -0.8572249 2
0.33639205 -0.18143828 -0.84952694 2
0.33702564 -0.18148057 -0.84184957 2
0.3386116 -0.18175729 -0.8343449 2
0.33923268 -0.18179707 -0.8267034 2
0.33984673 -0.18183543 -0.8190825 2
0.33948874 -0.18163548 -0.8113453 2
0.33912015 -0.1814334 -0.8036388 2
0.33970928 -0.18146674 -0.7960897 2
0.34029138 -0.18149869 -0.78856105 2
0.3408662 -0.18152918 -0.781053 2
0.34240782 -0.18179692 -0.77367663 2
0.34297037 -0.18182494 -0.7662045 2
0.34450305 -0.1820909 -0.7588538 2
0.34603214 -0.18235616 -0.7515133 2
0.34755778 -0.18262069 -0.7441831 2
0.34907985 -0.18288453 -0.7368632 2
0.3496139 -0.18290679 -0.7294731 2
0.35112703 -0.18316884 -0.7221788 2
0.35263658 -0.18343015 -0.7148948 2
0.35414267 -0.18369074 -0.70762104 2
0.35663676 -0.18419291 -0.7004174 2
0.35913074 -0.18469505 -0.69321376 2
0.36162472 -0.18519722 -0.6860101 2
0.3641187 -0.18569936 -0.6788065 2
0.36561418 -0.18595783 -0.67156345 2
0.36710596 -0.18621556 -0.6643307 2
0.37059855 -0.18696143 -0.6571664 2
0.37309086 -0.18746321 -0.64996797 2
0.37759447 -0.18845527 -0.64280707 2
0.38210535 -0.18944873 -0.63562566 2
0.3876325 -0.19068949 -0.6284323 2
0.39215934 -0.19168617 -0.6212047 2
0.39770603 -0.19293083 -0.61395484 1
0.40326333 -0.1941777 -0.60667425 1
0.4067986 -0.19493212 -0.5993868 1
0.40931928 -0.19543965 -0.5921062 1
0.41082 -0.19569917 -0.58484787 1
0.416404 -0.19695137 -0.57749027 1
0.42609274 -0.1992005 -0.5699719 1
0.43683147 -0.20170371 -0.5623442 1
0.60392225 -0.27084297 -1.7468054 1
0.58542335 -0.26581925 -1.7214463 1
0.5758393 -0.2631197 -1.7024376 1
0.5686612 -0.26104897 -1.6852341 1
0.5614369 -0.2589689 -1.668164 1
0.553342 -0.2566654 -1.6506908 1
0.5460236 -0.25456643 -1.6338925 1
0.538659 -0.25245816 -1.6172278 1
0.5312482 -0.25034052 -1.6006966 1
0.5246228 -0.24842916 -1.584815 1
0.5196215 -0.24694102 -1.5700786 1
0.5145848 -0.24544574 -1.555445 1
0.5095124 -0.24394335 -1.5409138 1
0.5035659 -0.24221675 -1.5259895 1
0.4975803 -0.24048235 -1.5111783 1
0.48987103 -0.23830466 -1.4955089 1
0.48549175 -0.23698987 -1.4818943 1
0.48023474 -0.23545025 -1.4678968 1
0.47663724 -0.23434101 -1.454942 1
0.472162 -0.23300691 -1.4416044 1
0.46765482 -0.2316664 -1.4283593 1
0.4631157 -0.23031943 -1.4152063 1
0.4585446 -0.22896604 -1.4021457 1
0.45137215 -0.22694452 -1.3878443 1
0.4467317 -0.22557719 -1.374984 1
0.44291937 -0.22442465 -1.3626499 1
0.43907857 -0.22326644 -1.3503981 1
0.43434572 -0.22188048 -1.3378046 1
0.42958105 -0.22048809 -1.3253032 1
0.42565143 -0.219312 -1.3133079 1
0.42082453 -0.21790709 -1.3009862 1
0.41509497 -0.21627231 -1.2883534 2
0.41020226 -0.21485417 -1.2762215 2
0.40702605 -0.21387787 -1.2649682 2
0.4029491 -0.21267207 -1.2533988 2
0.3979658 -0.21123569 -1.2415285 2
0.39295065 -0.20979287 -1.2297506 2
0.38702202 -0.20811804 -1.2176926 2
0.38370728 -0.20711385 -1.2068396 2
0.38125265 -0.20633091 -1.1964204 2
0.37877667 -0.20554371 -1.186063 2
0.3753909 -0.20452519 -1.1754152 2
0.37287045 -0.20372905 -1.1651859 2
0.36943662 -0.20270087 -1.1546767 2
0.36597812 -0.20166771 -1.1442391 2
0.3633901 -0.20085795 -1.1342049 2
0.36078084 -0.2000439 -1.1242323 2
0.35904944 -0.19945471 -1.1146424 2
0.35820103 -0.19909145 -1.1054201 2
0.35643578 -0.19849543 -1.0959277 2
0.35555732 -0.1981261 -1.0867926 2
0.35375834 -0.19752331 -1.0773978 2
0.3519416 -0.19691695 -1.0680542 2
0.35010707 -0.19630702 -1.0587621 2
0.34734333 -0.19546185 -1.0492358 2
0.34638476 -0.19507642 -1.0403316 2
0.34541214 -0.1946881 -1.0314684 2
0.34350836 -0.19406419 -1.0223762 2
0.34250546 -0.19366981 -1.0136002 2
0.34056795 -0.19303913 -1.0046055 2
0.33953476 -0.19263868 -0.99591684 2
0.3375635 -0.19200118 -0.98701966 2
0.3355745 -0.19136016 -0.97817385 2
0.3344952 -0.19095038 -0.96961844 2
0.33340168 -0.19053774 -0.96110415 2
0.332294 -0.19012226 -0.9526309 2
0.3311721 -0.1897039 -0.94419867 2
0.32910132 -0.1890464 -0.93558884 2
0.32794917 -0.18862195 -0.9272438 2
0.327721 -0.1884317 -0.91914827 2
0.32654226 -0.18800192 -0.9108802 2
0.32629108 -0.18780695 -0.90285134 2
0.32508564 -0.1873718 -0.89466023 2
0.32481134 -0.18717222 -0.8866981 2
0.3245263 -0.18697052 -0.8787667 2
0.32517946 -0.18700577 -0.8710437 2
0.32582557 -0.18703963 -0.8633412 2
0.32646453 -0.18707208 -0.8556592 2
0.32709646 -0.18710305 -0.8479978 2
0.32772124 -0.18713261 -0.8403569 2
0.32833886 -0.18716075 -0.8327365 2
0.32990885 -0.18742876 -0.8252834 2
0.3295529 -0.18721272 -0.8175572 2
0.33014917 -0.18723656 -0.8099984 2
0.32977355 -0.18701659 -0.8023287 2
0.33035398 -0.18703721 -0.794816 2
0.33092725 -0.18705638 -0.7873239 2
0.33149338 -0.18707417 -0.77985233 2
0.33205235 -0.1870905 -0.7724012 2
0.333578 -0.18734954 -0.7650764 2
0.33412468 -0.18736337 -0.7576613 2
0.33564138 -0.18762065 -0.75036216 2
0.33715463 -0.18787722 -0.7430732 2
0.33768344 -0.18788745 -0.73570937 2
0.33918774 -0.18814223 -0.7284461 2
0.33970416 -0.18814997 -0.7211182 2
0.34218574 -0.18864961 -0.7139505 2
0.34367943 -0.18890224 -0.706718 2
0.34615922 -0.18940155 -0.6995554 2
0.348639 -0.18990083 -0.6923928 2
0.35012555 -0.190152 -0.6851809 2
0.35260355 -0.19065095 -0.67802346 2
0.35408485 -0.19090109 -0.6708269 2
0.35656106 -0.19139965 -0.6636746 2
0.35903728 -0.19189824 -0.6565223 2
0.3625157 -0.1926467 -0.64939356 2
0.36700153 -0.19364612 -0.64227325 2
0.3714944 -0.19464697 -0.6351323 2
0.37599456 -0.19564925 -0.6279709 2
0.38151085 -0.19690429 -0.6207921 2
0.38602686 -0.19790979 -0.61358446 1
0.39055002 -0.19891672 -0.6063563 1
0.39406574 -0.19967268 -0.59911996 1
0.39758492 -0.2004294 -0.5918732 1
0.40008962 -0.20093368 -0.58463883 1
0.40361416 -0.20169143 -0.5773767 1
0.41225064 -0.20371903 -0.56994057 1
0.42295527 -0.20625924 -0.562367 1
0.4347136 -0.20905973 -0.55466837 1
0.6031829 -0.28215086 -1.7611048 1
0.5815402 -0.27613163 -1.733325 1
0.5720209 -0.27335733 -1.7142181 1
0.5665314 -0.27166247 -1.6980348 1
0.56018376 -0.26974118 -1.6814175 1
0.5546143 -0.26803023 -1.6654651 1
0.5473604 -0.2658729 -1.6485524 1
0.54088485 -0.26392585 -1.6323047 1
0.5327141 -0.26153028 -1.6151277 1
0.5244937 -0.25912476 -1.5980942 1
0.5187129 -0.25737125 -1.5827523 2
0.5120615 -0.25538874 -1.5670125 2
0.5062007 -0.25361913 -1.5519016 2
0.5003009 -0.2518416 -1.5369034 2
0.49519873 -0.25027835 -1.5225136 2
0.48754525 -0.24804051 -1.5067554 2
0.48152637 -0.24623905 -1.4921011 2
0.4754684 -0.2444297 -1.4775596 2
0.46937144 -0.2426125 -1.463131 2
0.46492684 -0.24123518 -1.4497547 2
0.4596027 -0.2396272 -1.4360063 2
0.45424306 -0.23801209 -1.4223604 2
0.448848 -0.23638977 -1.4088173 2
0.4425645 -0.234535 -1.3949273 2
0.43624187 -0.23267238 -1.3811502 2
0.43244934 -0.23147999 -1.3688031 2
0.42948675 -0.23050825 -1.356972 2
0.42563915 -0.22930478 -1.3447838 2
0.42262495 -0.22832267 -1.3331015 2
0.4187224 -0.2271081 -1.3210723 2
0.41479135 -0.22588782 -1.3091254 2
0.40996492 -0.22443362 -1.2968524 2
0.40510643 -0.222973 -1.2846717 2
0.40108657 -0.2217348 -1.2729813 2
0.3979107 -0.22072016 -1.2617657 2
0.3938359 -0.2194709 -1.2502344 2
0.3897326 -0.21821593 -1.2387851 2
0.3856008 -0.2169552 -1.227418 2
0.38144064 -0.21568875 -1.2161329 2
0.3772521 -0.21441664 -1.20493 2
0.37480128 -0.21360154 -1.1945331 2
0.372329 -0.21278216 -1.1841979 2
0.36894894 -0.21172641 -1.1735723 2
0.3664323 -0.21089809 -1.1633654 2
0.3630042 -0.20983268 -1.1528784 2
0.3595513 -0.20876221 -1.1424633 2
0.3560735 -0.2076868 -1.1321201 2
0.35346627 -0.20684023 -1.1221747 2
0.351735 -0.20622365 -1.112612 2
0.34998608 -0.20560347 -1.1031005 2
0.34821928 -0.20497976 -1.0936403 2
0.3464347 -0.20435245 -1.0842315 2
0.3446325 -0.20372157 -1.0748739 2
0.34371853 -0.20332317 -1.065863 2
0.3418826 -0.20268546 -1.056603 2
0.34002876 -0.2020442 -1.0473943 2
0.33906865 -0.20163651 -1.0385168 2
0.33809435 -0.20122592 -1.0296803 2
0.33710587 -0.20081247 -1.0208848 2
0.3361032 -0.2003962 -1.0121305 2
0.33508623 -0.19997703 -1.0034171 2
0.33313477 -0.1993161 -0.99449056 2
0.33116543 -0.1986516 -0.9856153 2
0.32917845 -0.19798352 -0.9767914 2
0.3271736 -0.19731186 -0.9680188 2
0.3251511 -0.19663663 -0.9592974 2
0.32404006 -0.19619851 -0.95085603 2
0.32291472 -0.19575752 -0.94245565 2
0.3217752 -0.1953137 -0.9340964 2
0.3206215 -0.194867 -0.92577815 2
0.3194536 -0.19441746 -0.9175009 2
0.31920958 -0.19420753 -0.90946776 2
0.31895494 -0.19399546 -0.90146536 2
0.31774795 -0.19353803 -0.893301 2
0.3174702 -0.19332127 -0.88536537 2
0.31718183 -0.1931024 -0.8774604 2
0.31782973 -0.19312568 -0.8697636 2
0.3184706 -0.1931475 -0.8620873 2
0.31815386 -0.1929229 -0.8542645 2
0.31877863 -0.1929415 -0.8466344 2
0.31939638 -0.1929587 -0.8390248 2
0.3200071 -0.19297443 -0.83143574 2
0.32061064 -0.19298877 -0.8238672 2
0.32120705 -0.19300164 -0.8163191 2
0.3208351 -0.19276597 -0.8086554 2
0.32141554 -0.19277562 -0.80115354 2
0.32198894 -0.19278388 -0.7936722 2
0.32255518 -0.19279067 -0.7862115 2
0.32214594 -0.19254749 -0.7786554 2
0.3226962 -0.19255106 -0.77124083 2
0.32421124 -0.1928025 -0.7639522 2
0.3257227 -0.19305323 -0.7566738 2
0.3262552 -0.19305323 -0.74931055 2
0.32775784 -0.19330217 -0.7420579 2
0.32827783 -0.19329967 -0.7347305 2
0.32977152 -0.19354682 -0.7275035 2
0.3302791 -0.19354181 -0.720212 2
0.3327483 -0.19403897 -0.71308017 2
0.33423138 -0.19428398 -0.7058839 2
0.33669877 -0.19478075 -0.69875723 2
0.3381765 -0.19502468 -0.69157636 2
0.33965063 -0.1952679 -0.6844058 2
0.34211445 -0.19576399 -0.6772893 2
0.34358335 -0.1960061 -0.6701341 2
0.34504855 -0.19624753 -0.6629892 2
0.3475088 -0.1967429 -0.655883 2
0.35196972 -0.19774826 -0.6488236 2
0.3554356 -0.1984997 -0.64172554 2
0.35990894 -0.19950758 -0.63463026 2
0.3643893 -0.20051686 -0.6275144 2
0.36988425 -0.20178403 -0.62038094 2
0.3743806 -0.20279656 -0.61321896 1
0.3788842 -0.20381053 -0.6060365 1
0.38339472 -0.20482592 -0.59883344 1
0.3879125 -0.20584272 -0.5916099 1
0.3904047 -0.2063445 -0.5844114 1
0.39391506 -0.2071049 -0.577185 1
0.40048838 -0.2086428 -0.5698492 1
0.41014087 -0.21096145 -0.5623578 1
0.41981816 -0.21328513 -0.55479455 1
0.43669653 -0.21743391 -0.5468204 1
1.2703079 -0.4276212 -0.44002894 1
1.2680365 -0.4268422 -0.42911398 1
1.2678224 -0.42658472 -0.41808146 1
1.2675942 -0.42632437 -0.40709013 1
1.2694377 -0.42658836 -0.39594027 1
1.2691847 -0.426323 -0.3850206 1
1.2668244 -0.42552614 -0.37436217 1
1.2665392 -0.42525434 -0.3635349 1
0.58329976 -0.28803766 -1.7492115 1
0.5714216 -0.28452343 -1.7282848 1
0.5651722 -0.28255606 -1.7114503 1
0.5596956 -0.28080344 -1.6952906 1
0.55418 -0.2790429 -1.6792436 1
0.54862523 -0.27727455 -1.6633096 1
0.54303145 -0.27549827 -1.6474884 1
0.53657603 -0.27348948 -1.631249 1
0.5300778 -0.27147204 -1.6151328 1
0.5227109 -0.26922065 -1.5986189 2
0.5152978 -0.2669599 -1.5822384 2
0.5086682 -0.264916 -1.5665019 2
0.50199604 -0.26286358 -1.5508884 2
0.49694777 -0.26125622 -1.5363988 2
0.4910289 -0.25941455 -1.5215166 2
0.4842341 -0.2573374 -1.506257 2
0.47823524 -0.25547963 -1.4916058 2
0.4721974 -0.25361395 -1.4770674 2
0.46612036 -0.25174046 -1.4626417 2
0.46000433 -0.24985905 -1.448329 2
0.4538492 -0.24796979 -1.4341292 2
0.44850254 -0.24630238 -1.4205015 2
0.44312024 -0.24462782 -1.4069763 2
0.4368515 -0.24271567 -1.3931048 2
0.43139637 -0.24102645 -1.3797901 2
0.42676044 -0.23956124 -1.3670168 2
0.42209244 -0.23808958 -1.3543357 2
0.41825056 -0.23684333 -1.3421755 2
0.4143803 -0.2355914 -1.3300972 2
0.41134346 -0.23456632 -1.3185194 2
0.40741813 -0.23330326 -1.3066003 2
0.4025991 -0.2318012 -1.2943554 2
0.39861524 -0.23052637 -1.2826055 2
0.3946029 -0.2292458 -1.2709379 2
0.39143264 -0.2281939 -1.2597448 2
0.3882376 -0.22713698 -1.2486236 2
0.38501775 -0.22607507 -1.2375741 2
0.38089705 -0.22477268 -1.2262194 2
0.37674797 -0.2234646 -1.2149467 2
0.3734498 -0.22238691 -1.2041233 2
0.37012684 -0.22130425 -1.1933713 2
0.3667791 -0.22021656 -1.1826913 2
0.36340642 -0.21912389 -1.1720833 2
0.3608954 -0.21826379 -1.1618932 2
0.35836315 -0.2173994 -1.1517649 2
0.35402918 -0.2160541 -1.1410258 2
0.3514508 -0.21518038 -1.1310308 2
0.34885097 -0.21430244 -1.1210974 2
0.3462298 -0.21342017 -1.1112256 2
0.34448457 -0.21277331 -1.101731 2
0.34182262 -0.21188281 -1.0919771 2
0.3400401 -0.21122847 -1.0825901 2
0.3382399 -0.21057059 -1.0732545 2
0.33732617 -0.21015026 -1.0642651 2
0.33549213 -0.20948555 -1.055027 2
0.33364034 -0.20881726 -1.0458401 2
0.33268046 -0.20838766 -1.0369842 2
0.3317063 -0.20795517 -1.0281694 2
0.33071804 -0.20751981 -1.0193956 2
0.32880044 -0.2068383 -1.0103986 2
0.3268652 -0.2061532 -1.0014529 2
0.3258307 -0.20570855 -0.9928125 2
0.32386172 -0.20501666 -0.9839643 2
0.32187486 -0.20432119 -0.9751674 2
0.32079422 -0.20386724 -0.9666604 2
0.31877363 -0.20316501 -0.95796096 2
0.3167354 -0.20245917 -0.9493128 2
0.3156085 -0.20199592 -0.94093925 2
0.31446743 -0.20152982 -0.9326067 2
0.31424487 -0.20130773 -0.9245281 2
0.3130771 -0.20083629 -0.9162726 2
0.31283152 -0.20060955 -0.9082607 2
0.31163716 -0.20013274 -0.9000821 2
0.31136847 -0.19990136 -0.89213693 2
0.3101474 -0.19941916 -0.88403535 2
0.30985558 -0.19918315 -0.8761569 2
0.30955315 -0.19894497 -0.86830926 2
0.31113386 -0.19920419 -0.86083615 2
0.31081367 -0.19896244 -0.85303986 2
0.31143332 -0.19896902 -0.8454359 2
0.31109357 -0.19872333 -0.837696 2
0.31265116 -0.19897787 -0.83028966 2
0.31229365 -0.19872864 -0.8226011 2
0.31192553 -0.19847722 -0.81494325 2
0.31250596 -0.19847594 -0.8074522 2
0.31307948 -0.19847323 -0.7999817 2
0.31364584 -0.19846909 -0.7925317 2
0.3132403 -0.19821016 -0.78498167 2
0.31379068 -0.1982028 -0.7775779 2
0.31530213 -0.19844805 -0.7703049 2
0.31584 -0.19843818 -0.762937 2
0.31734264 -0.19868164 -0.75568974 2
0.3178681 -0.19866927 -0.7483578 2
0.31838655 -0.19865544 -0.7410463 2
0.319875 -0.19889607 -0.7338401 2
0.32135987 -0.19913591 -0.7266441 2
0.32186043 -0.19911854 -0.71938396 2
0.32333648 -0.19935663 -0.71221364 2
0.32480884 -0.19959404 -0.70505357 2
0.32627773 -0.1998307 -0.69790375 2
0.32873094 -0.20032461 -0.69081813 2
0.33019447 -0.2005602 -0.68368375 2
0.33165455 -0.20079507 -0.67655957 2
0.33410406 -0.2012883 -0.6694842 2
0.33555877 -0.2015221 -0.66237545 2
0.3370099 -0.20175518 -0.65527695 2
0.34045446 -0.20250778 -0.64823496 2
0.34390247 -0.20326112 -0.6411827 2
0.34735417 -0.20401518 -0.63412017 2
0.35281694 -0.20529233 -0.6270629 2
0.35728478 -0.20631011 -0.61997217 2
0.36175978 -0.20732929 -0.6128609 2
0.36725104 -0.20861219 -0.6057216 1
0.3727529 -0.2098972 -0.5985514 1
0.37725282 -0.21092139 -0.5913683 1
0.3807453 -0.21168368 -0.58418775 1
0.38627386 -0.21297406 -0.5769406 1
0.39181304 -0.21426661 -0.56966263 1
0.39838266 -0.21582572 -0.5623155 1
0.40803123 -0.21818201 -0.5547966 1
0.418728 -0.22080846 -0.5471571 1
0.43560398 -0.22503354 -0.5391125 1
1.2559091 -0.43634427 -0.44021314 1
1.2557024 -0.43606627 -0.4291818 1
1.2596318 -0.43685746 -0.4178325 1
1.2594036 -0.43657517 -0.4068627 1
1.2612437 -0.43682748 -0.3957339 1
1.2630764 -0.4370783 -0.38462567 1
1.262813 -0.43678892 -0.3737585 1
1.264628 -0.43703622 -0.36270154 1
1.266436 -0.43728203 -0.35166517 1
1.268237 -0.43752646 -0.34064922 1
1.2679273 -0.43722773 -0.3299155 1
0.5938524 -0.30254513 -1.7714951 1
0.57076466 -0.29576564 -1.7424295 1
0.56538284 -0.29397166 -1.726057 1
0.5599619 -0.29216993 -1.7097976 1
0.5553155 -0.29058862 -1.6942024 1
0.54981816 -0.28877145 -1.6781638 1
0.5442817 -0.28694642 -1.6622379 1
0.5378872 -0.28488404 -1.6458888 2
0.53145003 -0.28281307 -1.629663 2
0.5249702 -0.28073347 -1.6135604 2
0.5176234 -0.2784148 -1.5970602 2
0.51105654 -0.27631772 -1.5812091 2
0.5044471 -0.27421206 -1.565481 2
0.49862468 -0.2723294 -1.5503811 2
0.49276316 -0.2704389 -1.5353942 2
0.48686254 -0.26854056 -1.52052 2
0.48008788 -0.2664016 -1.505269 2
0.47410738 -0.26448715 -1.4906259 2
0.4689263 -0.26279825 -1.4765751 2
0.4628694 -0.26086837 -1.4621525 2
0.4567734 -0.25893068 -1.4478428 2
0.4514823 -0.2572196 -1.43411 2
0.4444642 -0.2550317 -1.4195621 2
0.43909848 -0.25330555 -1.4060447 2
0.43284786 -0.25133675 -1.3921814 2
0.4274093 -0.24959596 -1.3788745 2
0.4227879 -0.24808432 -1.3661088 2
0.41813457 -0.24656622 -1.3534353 2
0.41344917 -0.24504168 -1.3408542 2
0.40873194 -0.24351071 -1.3283654 2
0.4048425 -0.24221103 -1.3163869 2
0.40092468 -0.2409056 -1.3044906 2
0.3969785 -0.23959447 -1.2926763 2
0.39300382 -0.23827757 -1.2809441 2
0.38900077 -0.236955 -1.269294 2
0.38583803 -0.23586617 -1.2581183 2
0.38265038 -0.23477234 -1.2470143 2
0.38031018 -0.2339137 -1.2363642 2
0.3770746 -0.23281024 -1.2253988 2
0.37293828 -0.23146082 -1.2141335 2
0.36877358 -0.23010568 -1.2029504 2
0.3645804 -0.22874482 -1.1918492 2
0.36212122 -0.22786225 -1.1815429 2
0.35875773 -0.22673301 -1.170947 2
0.3562541 -0.22584148 -1.160769 2
0.3528427 -0.22470258 -1.1503115 2
0.3502947 -0.2238021 -1.1402617 2
0.34683526 -0.22265355 -1.1299428 2
0.343351 -0.2215 -1.1196957 2
0.34162915 -0.22083046 -1.1101613 2
0.33899415 -0.21991245 -1.100363 2
0.33544052 -0.21874495 -1.090316 2
0.33366 -0.21806358 -1.080951 2
0.33186185 -0.21737863 -1.0716372 2
0.33004582 -0.21669011 -1.0623747 2
0.32821202 -0.21599801 -1.0531635 2
0.32726645 -0.21554933 -1.0442883 2
0.32630682 -0.21509783 -1.035454 2
0.32533288 -0.21464343 -1.0266608 2
0.3234334 -0.2139381 -1.0176395 2
0.3224293 -0.21347763 -1.0089335 2
0.32049596 -0.2127655 -1.0000097 2
0.31854498 -0.2120498 -0.99113715 2
0.31657612 -0.21133055 -0.982316 2
0.31550992 -0.21085756 -0.9737896 2
0.31350732 -0.21013148 -0.96506584 2
0.31148696 -0.20940183 -0.9563935 2
0.3103745 -0.20891954 -0.94800043 2
0.30924785 -0.20843439 -0.93964845 2
0.3081069 -0.20794638 -0.93133754 2
0.30695188 -0.2074555 -0.9230677 2
0.30671525 -0.20721413 -0.9150464 2
0.306468 -0.20697065 -0.9070559 2
0.30527377 -0.2064719 -0.8988989 2
0.30406535 -0.2059703 -0.89078295 2
0.30378258 -0.20571963 -0.88289505 2
0.30254757 -0.20521267 -0.8748561 2
0.303185 -0.2052119 -0.8672117 2
0.30287027 -0.20495479 -0.8594161 2
0.3034917 -0.20495076 -0.8518179 2
0.30315745 -0.20468973 -0.84407884 2
0.3037629 -0.20468248 -0.83652675 2
0.30436134 -0.20467381 -0.8289952 2
0.3039986 -0.20440708 -0.8213383 2
0.30458105 -0.20439519 -0.8138529 2
0.30419874 -0.2041245 -0.80625236 2
0.30476522 -0.20410939 -0.7988132 2
0.30532455 -0.20409285 -0.79139453 2
0.30491388 -0.20381643 -0.78387606 2
0.30642188 -0.2040555 -0.7766188 2
0.30695987 -0.20403467 -0.7692617 2
0.3074907 -0.20401241 -0.76192516 2
0.3080145 -0.20398875 -0.7546091 2
0.30950296 -0.20422386 -0.74740833 2
0.31001437 -0.20419766 -0.7401282 2
0.311494 -0.20443098 -0.732953 2
0.31199288 -0.20440228 -0.72570884 2
0.31346357 -0.20463385 -0.71855927 2
0.3149308 -0.20486467 -0.71142 2
0.31541193 -0.20483239 -0.70422715 2
0.3178544 -0.20532419 -0.6971722 2
0.3193109 -0.20555286 -0.6900638 2
0.3217516 -0.20604427 -0.6830141 2
0.32320285 -0.2062719 -0.675921 2
0.3246504 -0.20649879 -0.66883814 2
0.3260945 -0.20672496 -0.6617656 2
0.32753503 -0.20695044 -0.65470326 2
0.3299687 -0.20744042 -0.6476741 2
0.33340073 -0.20819603 -0.6406626 2
0.33683622 -0.20895232 -0.6336409 2
0.34127736 -0.20997567 -0.62661636 2
0.34572566 -0.21100043 -0.61957127 2
0.3511865 -0.21229367 -0.6125028 2
0.35565078 -0.21332167 -0.6054116 2
0.3611312 -0.21461885 -0.59828675 1
0.36561143 -0.21565004 -0.59114933 1
0.3711114 -0.21695115 -0.58396804 1
0.37662208 -0.2182544 -0.576756 1
0.38315952 -0.21982901 -0.5694796 1
0.3886932 -0.22113688 -0.5622008 1
0.39423764 -0.22244693 -0.5548912 1
0.4049003 -0.2251104 -0.54730594 1
0.41661465 -0.22805019 -0.5395845 1
0.43758678 -0.23343511 -0.5312375 1
1.243611 -0.44550973 -0.4402432 1
1.2392617 -0.44411743 -0.42959362 1
1.245241 -0.44545048 -0.41812575 1
1.2491528 -0.44623804 -0.4068278 1
1.2509857 -0.44647795 -0.39573032 1
1.2528116 -0.44671643 -0.3846534 1
1.2525445 -0.4464044 -0.37381816 1
1.256442 -0.4471891 -0.36256114 1
1.2582465 -0.44742328 -0.35154578 1
1.260044 -0.44765604 -0.34055105 1
1.2618343 -0.44788736 -0.32957676 1
1.265721 -0.4486699 -0.31835058 1
1.2777153 -0.45134324 -0.29531232 1
1.2858375 -0.45323688 -0.2834591 1
0.57729304 -0.30917287 -1.7617958 1
0.5647222 -0.30524057 -1.7401848 1
0.56016326 -0.30362207 -1.7243922 1
0.55556893 -0.3019964 -1.7087023 1
0.54931533 -0.2998966 -1.6920128 1
0.54383266 -0.29802197 -1.6759925 2
0.5374955 -0.29590535 -1.6595442 2
0.5327501 -0.2942493 -1.6442904 2
0.5263313 -0.2921161 -1.6280782 2
0.5198698 -0.28997445 -1.611989 2
0.5125432 -0.28758848 -1.5955029 2
0.5059947 -0.28542924 -1.5796652 2
0.4994036 -0.28326142 -1.5639505 2
0.49276972 -0.281085 -1.5483592 2
0.48692298 -0.27913713 -1.5333905 2
0.48103714 -0.2771814 -1.5185349 2
0.4751122 -0.27521777 -1.503792 2
0.46914816 -0.2732463 -1.4891622 2
0.46398175 -0.27150548 -1.4751244 2
0.4579414 -0.2695186 -1.460715 2
0.45270216 -0.26776308 -1.4468876 2
0.4474275 -0.26600045 -1.4331627 2
0.44127333 -0.2639907 -1.4190818 2
0.43592584 -0.26221335 -1.4055674 2
0.42969537 -0.26018822 -1.391707 2
0.42427492 -0.25839627 -1.378403 2
0.41881907 -0.25659716 -1.3652015 2
0.41418028 -0.25503266 -1.3525355 2
0.40950966 -0.25346166 -1.339962 2
0.40480697 -0.25188428 -1.3274808 2
0.40007234 -0.25030047 -1.3150921 2
0.3961656 -0.24895333 -1.3032081 2
0.3922304 -0.24760051 -1.2914064 2
0.38826668 -0.246242 -1.2796866 2
0.38427472 -0.24487774 -1.268049 2
0.38025415 -0.24350773 -1.2564933 2
0.377074 -0.242377 -1.2454067 2
0.37386894 -0.24124126 -1.2343919 2
0.3706391 -0.24010052 -1.223449 2
0.36651027 -0.23870872 -1.2122065 2
0.36235297 -0.2373112 -1.201046 2
0.3590449 -0.23615469 -1.1903288 2
0.35571194 -0.2349932 -1.1796834 2
0.35235417 -0.23382668 -1.16911 2
0.34985435 -0.23290302 -1.158954 2
0.3473333 -0.23197506 -1.1488597 2
0.34390438 -0.23079424 -1.1384914 2
0.34045064 -0.22960843 -1.128195 2
0.33786213 -0.22866686 -1.1182957 2
0.33525217 -0.22772102 -1.1084578 2
0.3317274 -0.22652088 -1.0983666 2
0.32996845 -0.22581644 -1.0889671 2
0.3272946 -0.2248577 -1.079314 2
0.3245994 -0.2238947 -1.0697224 2
0.3227836 -0.22317879 -1.060487 2
0.32095003 -0.2224593 -1.0513029 2
0.32000303 -0.22198837 -1.0424544 2
0.31904173 -0.22151457 -1.0336468 2
0.31806624 -0.22103791 -1.0248804 2
0.31616688 -0.22030519 -1.0158861 2
0.31424987 -0.21956892 -1.0069432 2
0.3123151 -0.21882905 -0.9980515 2
0.31036246 -0.2180856 -0.98921114 2
0.30930877 -0.21759321 -0.98067045 2
0.3073225 -0.21684296 -0.9719276 2
0.30623865 -0.21634452 -0.9634741 2
0.30421853 -0.21558748 -0.95482874 2
0.30310452 -0.21508293 -0.94646245 2
0.3019762 -0.21457548 -0.93813723 2
0.30176103 -0.21432199 -0.93007064 2
0.30060613 -0.2138092 -0.9218223 2
0.30036795 -0.21355106 -0.9138224 2
0.29918635 -0.21303292 -0.9056511 2
0.29799056 -0.21251191 -0.8975209 2
0.2967806 -0.21198805 -0.88943166 2
0.29649436 -0.21172024 -0.8815702 2
0.29619753 -0.2114503 -0.8737396 2
0.29588997 -0.21117817 -0.8659398 2
0.2955718 -0.21090393 -0.85817075 2
0.29524302 -0.21062754 -0.8504325 2
0.2958504 -0.21060972 -0.84288615 2
0.29550195 -0.2103294 -0.83520436 2
0.295143 -0.2100469 -0.8275533 2
0.29572546 -0.21002407 -0.82007873 2
0.2963009 -0.20999981 -0.8126247 2
0.29591346 -0.2097116 -0.8050558 2
0.2964728 -0.20968412 -0.79764795 2
0.29702508 -0.20965521 -0.79026055 2
0.29757035 -0.20962487 -0.78289384 2
0.2971456 -0.20932914 -0.77543265 2
0.29863942 -0.20955984 -0.7682218 2
0.29916334 -0.20952521 -0.7609166 2
0.2996801 -0.20948915 -0.75363195 2
0.30115974 -0.20971702 -0.7464621 2
0.3016641 -0.20967843 -0.7392133 2
0.3031348 -0.2099045 -0.7320692 2
0.30362678 -0.20986341 -0.7248563 2
0.3041116 -0.20982091 -0.717664 2
0.3055681 -0.2100441 -0.7105609 2
0.30702114 -0.2102666 -0.7034681 2
0.3084705 -0.2104884 -0.6963855 2
0.30991638 -0.21070944 -0.68931323 2
0.3113588 -0.2109298 -0.6822512 2
0.3137853 -0.21141835 -0.67524254 2
0.31522226 -0.2116376 -0.66819596 2
0.31665576 -0.21185617 -0.6611595 2
0.31808567 -0.212074 -0.6541334 2
0.3205068 -0.2125615 -0.64714015 2
0.32292795 -0.21304898 -0.64014685 2
0.3263476 -0.21380757 -0.6331659 2
0.32977068 -0.21456684 -0.6261747 2
0.3341993 -0.21559863 -0.61917526 2
0.3396387 -0.216904 -0.61215216 2
0.3440833 -0.217939 -0.6051066 2
0.34954226 -0.21924834 -0.5980271 2
0.35501194 -0.22055979 -0.5909168 1
0.36049223 -0.22187339 -0.58377576 1
0.3669958 -0.2234631 -0.57657516 1
0.37351358 -0.22505565 -0.56933355 1
0.3790294 -0.2263764 -0.56208986 1
0.38557374 -0.22797431 -0.5547712 1
0.39417183 -0.23012583 -0.54731315 1
0.40687704 -0.23338456 -0.5395759 1
0.41961777 -0.23665045 -0.531736 1
1.2354637 -0.45570338 -0.4399575 1
1.2331861 -0.45482445 -0.4291603 1
1.2370905 -0.45561057 -0.41788274 1
1.2430664 -0.45695388 -0.4064144 1
1.2448994 -0.45718282 -0.3953278 1
1.2488037 -0.45796895 -0.38405025 1
1.2506262 -0.45819575 -0.37299454 1
1.2524415 -0.45842117 -0.36195913 1
1.256339 -0.45920587 -0.35070208 1
1.2581435 -0.4594291 -0.33969757 1
1.2620374 -0.46021307 -0.32845083 1
1.2779325 -0.46369368 -0.2941238 1
1.2860543 -0.4656092 -0.28224903 1
1.2984184 -0.4686591 -0.26970527 1
1.315046 -0.4728477 -0.25643086 1
1.3338372 -0.47761208 -0.24269873 1
0.56721556 -0.3175345 -1.7566755 1
0.5594952 -0.3149224 -1.738508 1
0.5549511 -0.31325197 -1.7227285 1
0.5503714 -0.3115744 -1.7070515 1
0.5449461 -0.30965102 -1.6909266 2
0.5378581 -0.3072418 -1.6738231 2
0.53235114 -0.30530196 -1.657934 2
0.52680504 -0.30335432 -1.6421578 2
0.5195856 -0.30091864 -1.6254339 2
0.5131389 -0.29871404 -1.6093686 2
0.5066496 -0.29650086 -1.5934265 2
0.50011766 -0.2942791 -1.5776074 2
0.49354303 -0.2920488 -1.5619116 2
0.48692584 -0.28980988 -1.5463388 2
0.48109376 -0.28780466 -1.5313886 2
0.474393 -0.28554893 -1.516057 2
0.46848106 -0.28352755 -1.5013378 2
0.46336305 -0.28174162 -1.4872155 2
0.4573747 -0.27970487 -1.4727168 2
0.45134723 -0.27766025 -1.4583311 2
0.4469577 -0.27609652 -1.4449956 2
0.44085562 -0.27403688 -1.4308254 2
0.43555653 -0.27221447 -1.4172263 2
0.4302218 -0.2703849 -1.4037299 2
0.42485166 -0.2685482 -1.3903363 2
0.419446 -0.26670426 -1.3770452 2
0.41400468 -0.26485324 -1.3638566 2
0.4093789 -0.26324195 -1.3512034 2
0.40472102 -0.26162422 -1.3386428 2
0.39917672 -0.2597524 -1.3257518 2
0.39530945 -0.2583694 -1.3137982 2
0.3914137 -0.2569806 -1.3019269 2
0.3866297 -0.25533748 -1.2897303 2
0.3826754 -0.2539369 -1.2780281 2
0.37869263 -0.25253057 -1.2664081 2
0.37468135 -0.2511186 -1.2548702 2
0.3706417 -0.24970083 -1.2434142 2
0.36744237 -0.24852784 -1.2324219 2
0.36334765 -0.24709903 -1.2211251 2
0.3600967 -0.24591564 -1.2102816 2
0.3559469 -0.2444757 -1.1991439 2
0.35264456 -0.24328198 -1.1884491 2
0.3493172 -0.2420832 -1.1778262 2
0.34596503 -0.24087943 -1.1672751 2
0.34346914 -0.23992361 -1.1571414 2
0.34006906 -0.23871018 -1.1467288 2
0.3375287 -0.23774542 -1.1367233 2
0.33408058 -0.23652233 -1.1264493 2
0.33149588 -0.23554863 -1.1165721 2
0.32888985 -0.23457064 -1.1067566 2
0.32626247 -0.23358832 -1.0970025 2
0.32361376 -0.23260175 -1.0873101 2
0.32183897 -0.2318667 -1.0779836 2
0.3191495 -0.23087187 -1.0684092 2
0.31643856 -0.22987278 -1.0588963 2
0.31550765 -0.22938316 -1.0500232 2
0.31366014 -0.22863342 -1.0409071 2
0.31269908 -0.22813772 -1.0321213 2
0.31081772 -0.22738121 -1.0231028 2
0.3098265 -0.22687943 -1.014404 2
0.30700195 -0.22585742 -1.0052196 2
0.3050673 -0.22509019 -0.99635494 2
0.30402803 -0.22457875 -0.98779476 2
0.30205977 -0.2238047 -0.9790276 2
0.30099034 -0.22328718 -0.9705547 2
0.29898822 -0.22250633 -0.9618851 2
0.29788852 -0.22198273 -0.9534994 2
0.29585266 -0.22119509 -0.9449272 2
0.29564655 -0.22092696 -0.93685114 2
0.29450428 -0.22039478 -0.92858857 2
0.29334784 -0.21985973 -0.92036706 2
0.29310608 -0.21958442 -0.91239357 2
0.29192293 -0.21904401 -0.9042491 2
0.2907256 -0.21850075 -0.8961456 2
0.28951406 -0.21795462 -0.8880831 2
0.2892244 -0.21766965 -0.8802482 2
0.2889241 -0.21738254 -0.87244403 2
0.2886132 -0.2170933 -0.8646707 2
0.28735018 -0.2165368 -0.85675704 2
0.28795934 -0.21650837 -0.84921634 2
0.28856146 -0.21647851 -0.8416962 2
0.28820968 -0.21618102 -0.8340409 2
0.28784728 -0.21588142 -0.82641625 2
0.2884246 -0.21584655 -0.81896794 2
0.28804255 -0.21554299 -0.8113998 2
0.2886039 -0.2155049 -0.80399764 2
0.289158 -0.21546538 -0.796616 2
0.28874767 -0.21515612 -0.78913 2
0.28928578 -0.21511339 -0.78179455 2
0.28981686 -0.21506922 -0.7744796 2
0.2903409 -0.21502362 -0.76718515 2
0.2908578 -0.2149766 -0.7599113 2
0.29136753 -0.21492814 -0.75265795 2
0.29283834 -0.21514873 -0.7455192 2
0.29333568 -0.21509777 -0.73830175 2
0.29479754 -0.21531658 -0.73118865 2
0.29528248 -0.21526311 -0.7240071 2
0.29576027 -0.21520822 -0.71684617 2
0.29623103 -0.21515189 -0.70970565 2
0.29767334 -0.21536677 -0.70264906 2
0.30009282 -0.21585388 -0.6956609 2
0.30152977 -0.21606769 -0.6886197 2
0.30296326 -0.21628077 -0.6815887 2
0.3043933 -0.21649311 -0.674568 2
0.30581963 -0.21670477 -0.66755754 2
0.3072425 -0.21691571 -0.6605574 2
0.30965304 -0.21740104 -0.65359485 2
0.31206357 -0.2178864 -0.6466324 2
0.3144741 -0.21837173 -0.6396699 2
0.31688464 -0.21885706 -0.6327074 2
0.32029343 -0.21961896 -0.6257518 2
0.32470596 -0.22065853 -0.6187877 2
0.33012748 -0.22197674 -0.6117998 2
0.3345561 -0.22301947 -0.6047895 2
0.33999705 -0.22434165 -0.5977451 2
0.34544885 -0.22566597 -0.59067 2
0.35091126 -0.22699241 -0.583564 1
0.35739505 -0.22860007 -0.5763982 1
0.36389303 -0.23021062 -0.5691914 1
0.37040532 -0.231824 -0.56194353 1
0.3769318 -0.23344024 -0.5546546 1
0.3865261 -0.2359008 -0.5471761 1
0.39920413 -0.23920895 -0.5394618 1
0.41089642 -0.24224304 -0.53170455 1
0.424667 -0.2458467 -0.5237251 1
1.2295836 -0.4667629 -0.45051062 1
1.227331 -0.46585608 -0.43967402 1
1.2229964 -0.464379 -0.42906985 1
1.2310187 -0.46629637 -0.4174608 1
1.239055 -0.46821666 -0.4058107 1
1.242963 -0.4690035 -0.39452296 1
1.2447962 -0.46922147 -0.3834471 1
1.2466222 -0.46943808 -0.37239194 1
1.2505232 -0.4702235 -0.3611246 1
1.254424 -0.4710089 -0.34985742 1
1.258325 -0.4717943 -0.33859012 1
1.2622257 -0.47257972 -0.32732287 1
1.2862567 -0.47802258 -0.2810368 1
1.2965027 -0.48053885 -0.26878473 1
1.3109981 -0.48421288 -0.2558217 1
1.329764 -0.4890489 -0.24208564 1
0.58401084 -0.3342983 -1.7836533 1
0.56117296 -0.32702595 -1.7544146 1
0.5550785 -0.32482642 -1.7373984 1
0.5505508 -0.32310444 -1.7216268 1
0.54518104 -0.32113194 -1.7054019 2
0.5397723 -0.31915152 -1.6892903 2
0.5335145 -0.31691915 -1.672746 2
0.52721405 -0.3146782 -1.6563246 2
0.5208709 -0.31242865 -1.6400268 2
0.5144851 -0.31017053 -1.6238518 2
0.50642264 -0.30741268 -1.6067502 2
0.49994802 -0.30513662 -1.590832 2
0.49261022 -0.3026058 -1.5745223 2
0.48604858 -0.30031222 -1.5588553 2
0.47944438 -0.2980101 -1.5433115 2
0.4727975 -0.29569942 -1.5278908 2
0.46693575 -0.2936278 -1.5130874 2
0.46186447 -0.2917964 -1.4988858 2
0.45509505 -0.28946102 -1.483819 2
0.4491161 -0.2873658 -1.4693543 2
0.4439329 -0.28551185 -1.4554758 2
0.43871415 -0.28365076 -1.4417 2
0.43345988 -0.2817825 -1.4280269 2
0.42817008 -0.2799071 -1.4144562 2
0.4228449 -0.27802455 -1.4009883 2
0.4183278 -0.27638578 -1.3880708 2
0.41293323 -0.27448928 -1.3748031 2
0.40750313 -0.27258557 -1.3616378 2
0.4028865 -0.27092677 -1.3490076 2
0.39823806 -0.26926154 -1.3364699 2
0.39355755 -0.2675898 -1.3240244 2
0.38969946 -0.26616478 -1.3120885 2
0.38495672 -0.26448053 -1.2998226 2
0.38018215 -0.2627899 -1.2876492 2
0.37623525 -0.26134694 -1.2759697 2
0.37225986 -0.25989825 -1.2643723 2
0.3682562 -0.25844383 -1.2528571 2
0.36422408 -0.25698376 -1.241424 2
0.36103034 -0.25577348 -1.2304541 2
0.356943 -0.25430226 -1.2191799 2
0.35369778 -0.25308162 -1.2083589 2
0.3495555 -0.2515993 -1.1972438 2
0.34625876 -0.2503683 -1.1865716 2
0.3429371 -0.24913226 -1.175971 2
0.33959067 -0.24789123 -1.1654425 2
0.33709848 -0.24690326 -1.1553309 2
0.3337041 -0.24565257 -1.1449409 2
0.33116758 -0.24465565 -1.1349576 2
0.32772517 -0.24339528 -1.1247059 2
0.3251443 -0.24238943 -1.1148509 2
0.32254195 -0.24137928 -1.1050575 2
0.3199185 -0.24036486 -1.0953256 2
0.31727362 -0.23934613 -1.0856553 2
0.31460738 -0.2383231 -1.0760466 2
0.3128152 -0.23755707 -1.0667986 2
0.31010818 -0.23652582 -1.0573078 2
0.3091774 -0.23601429 -1.0484563 2
0.30733192 -0.23523755 -1.0393622 2
0.30546868 -0.23445721 -1.0303193 2
0.30449176 -0.23393638 -1.0216012 2
0.3016888 -0.23288582 -1.0123876 2
0.29977214 -0.23209475 -1.0034987 2
0.29783785 -0.23130013 -0.9946611 2
0.29679704 -0.2307664 -0.98612773 2
0.2948289 -0.22996499 -0.97738755 2
0.2937578 -0.2294252 -0.9689414 2
0.29175603 -0.22861697 -0.9602988 2
0.29065478 -0.22807111 -0.9519398 2
0.28953934 -0.22752236 -0.94362193 2
0.2884096 -0.22697078 -0.93534505 2
0.28726578 -0.22641633 -0.92710924 2
0.28610766 -0.22585903 -0.91891456 2
0.28586257 -0.22556658 -0.9109676 2
0.28467786 -0.22500391 -0.9028498 2
0.28347886 -0.22443835 -0.894773 2
0.28319836 -0.22413875 -0.8869287 2
0.282907 -0.223837 -0.8791151 2
0.28166902 -0.2232636 -0.8711512 2
0.28135467 -0.22295721 -0.86340433 2
0.2810297 -0.2226487 -0.8556882 2
0.280694 -0.22233798 -0.848003 2
0.2812909 -0.2222961 -0.840509 2
0.28093565 -0.22198148 -0.83288014 2
0.2805698 -0.22166471 -0.82528204 2
0.28019333 -0.22134583 -0.8177147 2
0.28075647 -0.22129713 -0.81031823 2
0.28131258 -0.221247 -0.8029423 2
0.28090763 -0.2209224 -0.7954571 2
0.28144765 -0.22086905 -0.7881273 2
0.28198063 -0.2208143 -0.78081805 2
0.2815472 -0.22048394 -0.77341497 2
0.2820642 -0.22042595 -0.7661519 2
0.28257406 -0.22036655 -0.7589093 2
0.2840414 -0.22058095 -0.75178623 2
0.28453887 -0.22051902 -0.7445796 2
0.28599727 -0.22073163 -0.73748225 2
0.28551233 -0.2203909 -0.73022795 2
0.28696012 -0.22060136 -0.7231613 2
0.28743088 -0.2205341 -0.7160316 2
0.2878946 -0.22046538 -0.70892245 2
0.2893281 -0.22067298 -0.7018969 2
0.29075813 -0.22087987 -0.69488156 2
0.2921846 -0.22108604 -0.6878766 2
0.29458976 -0.2215703 -0.6809294 2
0.29601085 -0.2217754 -0.67393976 2
0.2974285 -0.22197978 -0.66696036 2
0.29884243 -0.22218345 -0.65999126 2
0.30124235 -0.22266664 -0.65305954 2
0.30364215 -0.22314985 -0.6461278 2
0.30604208 -0.22363304 -0.63919616 2
0.30943668 -0.22439755 -0.6322762 2
0.31283486 -0.22516279 -0.625346 2
0.3162365 -0.22592874 -0.6184055 2
0.32164192 -0.22726019 -0.6114476 2
0.32605612 -0.22831102 -0.6044676 2
0.33047748 -0.22936328 -0.597467 2
0.3369167 -0.23098393 -0.5904079 2
0.34236288 -0.2323236 -0.5833319 2
0.3488288 -0.23394959 -0.57619584 2
0.3542981 -0.23529391 -0.5690531 1
0.3607906 -0.23692526 -0.56184006 1
0.36831164 -0.23884474 -0.5545413 1
0.37788248 -0.24133901 -0.5470916 1
0.39053178 -0.24469621 -0.5394053 1
0.402197 -0.24777423 -0.53167635 1
0.41287267 -0.25057197 -0.5239204 1
1.2192129 -0.47596782 -0.4393927 1
1.2169427 -0.47502458 -0.42863974 1
1.224954 -0.47696173 -0.41703993 1
1.2329797 -0.47890174 -0.40539896 1
1.236884 -0.47968787 -0.39412153 1
1.2387172 -0.47989494 -0.38305652 1
1.2405435 -0.4801005 -0.37201208 1
1.2444407 -0.48088527 -0.36075506 1
1.2525018 -0.48283243 -0.34901154 1
1.2564062 -0.48361856 -0.33773404 1
1.2603108 -0.48440468 -0.32645655 1
1.2903665 -0.49126655 -0.2684935 1
1.30484 -0.49499106 -0.255538 1
1.321463 -0.49931037 -0.24214405 1
1.3381284 -0.50363827 -0.22862694 1
0.57074654 -0.34170514 -1.7761867 1
0.557539 -0.33722895 -1.7538679 1
0.5506654 -0.33472025 -1.736289 1
0.54615414 -0.33294672 -1.7205253 2
0.5408027 -0.33091754 -1.7043087 2
0.5337994 -0.32838267 -1.6871047 2
0.5283663 -0.32633704 -1.6711242 2
0.5212742 -0.3237843 -1.6541767 2
0.51494765 -0.32147223 -1.6378973 2
0.50776494 -0.3189013 -1.6212113 2
0.50135136 -0.3165717 -1.6051834 2
0.4932611 -0.3137315 -1.5882398 2
0.48593974 -0.3111326 -1.571954 2
0.479393 -0.3087762 -1.556311 2
0.47198117 -0.30615914 -1.5402869 2
0.46617138 -0.30403763 -1.5253942 2
0.45949674 -0.30165547 -1.5101204 2
0.45360708 -0.29951793 -1.4954586 2
0.4485078 -0.29762602 -1.4813931 2
0.44337308 -0.29572695 -1.4674301 2
0.4373697 -0.29356652 -1.4530966 2
0.43216217 -0.2916528 -1.4393439 2
0.42691898 -0.28973192 -1.4256941 2
0.4216404 -0.2878039 -1.4121468 2
0.41632617 -0.2858687 -1.3987021 2
0.4118185 -0.28418237 -1.3858078 2
0.406435 -0.2822333 -1.3725631 2
0.40186155 -0.28053373 -1.3598585 2
0.39725602 -0.2788278 -1.3472462 2
0.39261854 -0.27711535 -1.3347263 2
0.38794923 -0.27539653 -1.3222988 2
0.38324773 -0.27367127 -1.3099635 2
0.3785144 -0.27193952 -1.2977207 2
0.37374902 -0.27020139 -1.2855701 2
0.36980963 -0.26871604 -1.2739134 2
0.36584187 -0.26722497 -1.2623389 2
0.36270702 -0.26598817 -1.2512374 2
0.35868418 -0.264486 -1.2398219 2
0.35463285 -0.26297814 -1.2284884 2
0.35141993 -0.2617256 -1.2176127 2
0.34731352 -0.26020664 -1.2064383 2
0.34404898 -0.25894368 -1.1957116 2
0.34075975 -0.25767577 -1.1850566 2
0.33657157 -0.25614035 -1.1741182 2
0.33410645 -0.25512487 -1.1639621 2
0.33074248 -0.25384194 -1.1535225 2
0.32735372 -0.252554 -1.1431549 2
0.324821 -0.25152493 -1.1331937 2
0.32226706 -0.25049156 -1.1232944 2
0.31880713 -0.2491893 -1.1131319 2
0.31620884 -0.248147 -1.1033607 2
0.3135891 -0.24710043 -1.0936508 2
0.3118379 -0.24631523 -1.0843118 2
0.3091774 -0.2452604 -1.0747201 2
0.30649543 -0.24420132 -1.0651901 2
0.3046875 -0.2434047 -1.0560151 2
0.3028618 -0.24260448 -1.0468916 2
0.30101824 -0.24180068 -1.0378194 2
0.29915702 -0.24099334 -1.0287985 2
0.29727793 -0.24018238 -1.0198288 2
0.2953812 -0.23936789 -1.0109105 2
0.29346657 -0.23854981 -1.0020435 2
0.2915342 -0.23772813 -0.9932277 2
0.2904936 -0.23717253 -0.984716 2
0.2885275 -0.23634405 -0.97599775 2
0.28745663 -0.23578237 -0.96757317 2
0.28545678 -0.2349471 -0.9589524 2
0.28435576 -0.23437934 -0.95061517 2
0.28324044 -0.23380871 -0.9423189 2
0.28211093 -0.2332352 -0.9340637 2
0.28096724 -0.23265885 -0.92584944 2
0.27980936 -0.23207961 -0.9176763 2
0.2795627 -0.23177038 -0.9097507 2
0.27837813 -0.23118581 -0.90165454 2
0.27717936 -0.23059835 -0.8935994 2
0.27689707 -0.23028196 -0.8857764 2
0.27567172 -0.22968914 -0.87779826 2
0.27536643 -0.2293681 -0.87004197 2
0.2750504 -0.22904493 -0.86231637 2
0.27472377 -0.2287196 -0.85462165 2
0.27532613 -0.22866784 -0.84712315 2
0.27403855 -0.22806253 -0.8393245 2
0.27462304 -0.22800718 -0.8318773 2
0.27425563 -0.2276736 -0.8243005 2
0.2738775 -0.22733791 -0.8167546 2
0.27348864 -0.22700007 -0.8092394 2
0.2740394 -0.22693793 -0.80188966 2
0.2736311 -0.22659613 -0.7944309 2
0.27416587 -0.2265308 -0.7871274 2
0.27373803 -0.22618507 -0.7797251 2
0.27425683 -0.2261165 -0.7724677 2
0.27572775 -0.22632612 -0.76533973 2
0.2752732 -0.22597505 -0.75801444 2
0.27673352 -0.22618254 -0.7509173 2
0.2772256 -0.2261086 -0.74373686 2
0.2777108 -0.22603323 -0.736577 2
0.2781887 -0.22595643 -0.7294376 2
0.27865958 -0.2258782 -0.7223187 2
0.28009498 -0.22608067 -0.7152934 2
0.28055346 -0.22599994 -0.70821047 2
0.28197992 -0.22620063 -0.7012108 2
0.28340292 -0.2264006 -0.69422144 2
0.28482223 -0.22659989 -0.6872423 2
0.28721857 -0.22708236 -0.68032086 2
0.28765035 -0.22699626 -0.67331487 2
0.29004312 -0.22747801 -0.6664037 2
0.29243588 -0.2279598 -0.6594925 2
0.293841 -0.2281562 -0.65255445 2
0.29623199 -0.22863759 -0.6456484 2
0.2996142 -0.22940509 -0.63875896 2
0.30299985 -0.23017327 -0.63185924 2
0.3063891 -0.2309422 -0.6249493 2
0.31077826 -0.231999 -0.6180303 2
0.3151747 -0.23305722 -0.6110908 2
0.31957817 -0.23411687 -0.6041308 2
0.32398868 -0.23517795 -0.5971502 2
0.33041346 -0.23681761 -0.59011054 2
0.33584726 -0.2381712 -0.5830542 2
0.34129155 -0.23952697 -0.5759671 2
0.34674656 -0.24088486 -0.56884927 2
0.35322285 -0.24253489 -0.56166077 2
0.35971344 -0.24418782 -0.55443126 2
0.3692609 -0.24671577 -0.5470104 1
0.37883317 -0.24924873 -0.53951776 1
0.39046597 -0.25236958 -0.53183264 1
0.4051894 -0.25637233 -0.52385867 1
1.2111093 -0.48603863 -0.4391136 1
1.2108964 -0.48564965 -0.42821085 1
1.2188967 -0.48760659 -0.41662017 1
1.224851 -0.4889785 -0.40518093 1
1.2287484 -0.4897632 -0.393924 1
1.2305781 -0.48995858 -0.38288 1
1.2344719 -0.49074256 -0.37163326 1
1.2383658 -0.49152654 -0.36038658 1
1.2443377 -0.49290198 -0.348896 1
1.2482351 -0.49368668 -0.33763906 1
1.2542177 -0.49506432 -0.32611772 1
0.59207773 -0.36036223 -1.806874 1
0.5630959 -0.35075462 -1.7727561 1
0.5531076 -0.3471794 -1.7527504 1
0.54625595 -0.34460378 -1.7351804 2
0.5401591 -0.34227216 -1.7183042 2
0.53482246 -0.34018558 -1.702106 2
0.52864206 -0.3378371 -1.6854708 2
0.5224191 -0.33548003 -1.6689587 2
0.5161536 -0.33311445 -1.6525698 2
0.50822556 -0.33023006 -1.6352348 2
0.5018711 -0.3278466 -1.6191025 2
0.49466062 -0.32519865 -1.6025691 2
0.48658872 -0.32228535 -1.5856497 2
0.47928405 -0.31961852 -1.5693882 2
0.47275198 -0.31719923 -1.5537689 2
0.46617723 -0.31477135 -1.5382726 2
0.45955992 -0.31233495 -1.5228996 2
0.45372415 -0.31014788 -1.5081432 2
0.44784915 -0.30795288 -1.4934998 2
0.44276285 -0.30600876 -1.4794524 2
0.43681157 -0.30379838 -1.4650295 2
0.43082118 -0.3015802 -1.4507195 2
0.42645776 -0.2998736 -1.437458 2
0.42122757 -0.29790044 -1.4238262 2
0.41512525 -0.29565972 -1.4098396 2
0.4106605 -0.29393268 -1.3968706 2
0.4061638 -0.29219925 -1.383994 2
0.4007933 -0.29019785 -1.3707676 2
0.39623082 -0.2884512 -1.3580809 2
0.39079106 -0.28643584 -1.3450544 2
0.3870101 -0.2849385 -1.3329843 2
0.38235176 -0.2831725 -1.3205745 2
0.37766147 -0.28140008 -1.3082572 2
0.37208664 -0.27935755 -1.2956209 2
0.36818492 -0.2778359 -1.2838995 2
0.3642547 -0.27630854 -1.2722604 2
0.36029613 -0.27477545 -1.2607034 2
0.35630918 -0.27323663 -1.2492285 2
0.35229373 -0.2716921 -1.2378356 2
0.3491131 -0.27040768 -1.2269056 2
0.3450427 -0.268852 -1.2156718 2
0.34181046 -0.2675572 -1.2048905 2
0.33855343 -0.26625735 -1.194181 2
0.3352716 -0.26495254 -1.1835432 2
0.33196485 -0.26364267 -1.1729774 2
0.3286332 -0.26232785 -1.1624835 2
0.32527673 -0.26100796 -1.1520612 2
0.32277274 -0.25995177 -1.1420505 2
0.31936824 -0.25862223 -1.1317668 2
0.31593895 -0.25728774 -1.121555 2
0.3133675 -0.25621796 -1.1117392 2
0.31077468 -0.25514382 -1.101985 2
0.30904686 -0.25433594 -1.0926062 2
0.30641317 -0.25325364 -1.08297 2
0.30375826 -0.25216705 -1.0733954 2
0.30108202 -0.2510761 -1.0638824 2
0.29927778 -0.25025284 -1.0547242 2
0.2974558 -0.24942593 -1.0456173 2
0.29561615 -0.24859549 -1.036562 2
0.29375863 -0.24776147 -1.0275577 2
0.29188335 -0.24692385 -1.0186049 2
0.28908813 -0.245809 -1.0094355 2
0.28717554 -0.24496387 -1.0005904 2
0.28615105 -0.24438958 -0.9920541 2
0.28420472 -0.24353765 -0.98330647 2
0.28315008 -0.24295728 -0.97485733 2
0.28117 -0.24209858 -0.9662072 2
0.2800851 -0.2415121 -0.95784533 2
0.27898598 -0.2409228 -0.9495245 2
0.2769562 -0.24005406 -0.941018 2
0.27582693 -0.23945867 -0.93278444 2
0.27468336 -0.23886038 -0.92459184 2
0.2735257 -0.23825927 -0.91644037 2
0.2732774 -0.23793323 -0.9085361 2
0.27209294 -0.23732673 -0.9004615 2
0.2718215 -0.23699607 -0.8926239 2
0.27061057 -0.2363842 -0.8846263 2
0.270316 -0.23604889 -0.87685543 2
0.26907837 -0.23543166 -0.8689348 2
0.26969504 -0.23537181 -0.861406 2
0.26936853 -0.23503007 -0.8537275 2
0.2690314 -0.23468615 -0.84607977 2
0.26868355 -0.23434009 -0.8384628 2
0.2683251 -0.2339919 -0.8308766 2
0.2679559 -0.23364155 -0.8233213 2
0.2675761 -0.23328908 -0.8157966 2
0.2671857 -0.23293443 -0.8083028 2
0.26678455 -0.23257764 -0.8008398 2
0.26732302 -0.23250206 -0.7935368 2
0.26690245 -0.23214133 -0.78613013 2
0.26742494 -0.2320625 -0.7788733 2
