ply
format ascii 1.0
comment v20 pointcloud — conf>=1, radius=1.7m, n=9326
element vertex 1352
property float x
property float y
property float z
property uchar confidence
end_header
0.20717442 -0.42753047 -0.9389503 2
0.20537877 -0.42599547 -0.93049884 2
0.2026937 -0.42404902 -0.92188346 2
0.19998717 -0.42209834 -0.91332966 2
0.19813454 -0.42055213 -0.9050423 2
0.19626403 -0.4190024 -0.8968061 2
0.19437575 -0.41744918 -0.88862133 2
0.19158912 -0.4154827 -0.8802984 2
0.19054568 -0.4143322 -0.8724056 2
0.18771982 -0.41235805 -0.86419547 2
0.18664432 -0.41120118 -0.856395 2
0.18555462 -0.41004157 -0.8486357 2
0.18445063 -0.40887916 -0.8409173 2
0.18333232 -0.4077139 -0.8332399 2
0.18219984 -0.40654582 -0.82560366 2
0.18194783 -0.40578753 -0.81815684 2
0.18168521 -0.4050271 -0.81074077 2
0.18141186 -0.40426463 -0.8033555 2
0.18112779 -0.40349996 -0.796001 2
0.18173504 -0.40314722 -0.78880525 2
0.18233502 -0.40279305 -0.7816299 2
0.18292797 -0.40243745 -0.7744751 2
0.18351376 -0.40208048 -0.7673409 2
0.18409252 -0.40172207 -0.76022714 2
0.18557489 -0.40177804 -0.7532362 2
0.18614101 -0.4014172 -0.74615836 2
0.18761456 -0.40147138 -0.73919296 2
0.18908441 -0.40152484 -0.732238 2
0.1905508 -0.4015776 -0.72529316 2
0.19293332 -0.40204716 -0.7184353 2
0.19531584 -0.40251672 -0.71157736 2
0.19677508 -0.40256804 -0.7046531 2
0.19915581 -0.40303725 -0.6978003 2
0.20153654 -0.40350646 -0.6909475 2
0.20484602 -0.40439487 -0.6841457 2
0.20722854 -0.40486443 -0.67728776 2
0.20961106 -0.405334 -0.6704298 2
0.21292758 -0.40622377 -0.66360754 2
0.21624768 -0.40711433 -0.65677494 2
0.21957135 -0.40800554 -0.64993215 2
0.2228986 -0.40889752 -0.643079 2
0.22622931 -0.40979016 -0.6362156 2
0.22956371 -0.4106835 -0.629342 2
0.2338463 -0.41199994 -0.6224629 2
0.23813605 -0.41331774 -0.61556333 2
0.24338114 -0.4150601 -0.6086378 2
0.24863696 -0.41680455 -0.6016815 2
0.2539035 -0.41855115 -0.5946944 2
0.26013422 -0.42072397 -0.5876556 2
0.26637936 -0.42289954 -0.5805759 2
0.27263856 -0.42507803 -0.5734551 2
0.2798711 -0.42768443 -0.56625706 2
0.28712142 -0.43029445 -0.5590077 2
0.2953521 -0.4333338 -0.5516606 2
0.3064971 -0.43765616 -0.5440971 2
0.3186401 -0.44241148 -0.53638446 1
0.33469033 -0.44888163 -0.5283218 1
0.35757792 -0.4583528 -0.5196465 1
0.5390279 -0.6668306 -1.8435085 1
0.53386474 -0.6629127 -1.8257477 1
0.5182028 -0.653542 -1.8001473 1
0.50694 -0.6464884 -1.7781954 1
0.49560595 -0.6394208 -1.7564487 1
0.48570502 -0.633119 -1.7360141 1
0.47046196 -0.6240725 -1.7119262 1
0.45739722 -0.6161804 -1.6897242 1
0.44349647 -0.60788184 -1.6672101 1
0.425717 -0.5976104 -1.6422675 1
0.4116434 -0.5892778 -1.6202507 1
0.3982507 -0.5813211 -1.5989926 1
0.38783836 -0.5749185 -1.58003 1
0.3781283 -0.56889606 -1.5617644 2
0.36989415 -0.5636478 -1.5446875 2
0.36237657 -0.5587825 -1.5282667 2
0.35712457 -0.5550888 -1.5134803 2
0.3510598 -0.5509932 -1.4983149 2
0.34495223 -0.5468892 -1.4832726 2
0.339579 -0.5431716 -1.468835 2
0.33416653 -0.53944623 -1.4545102 2
0.32871497 -0.5357132 -1.4402983 2
0.32478917 -0.53276426 -1.4271317 2
0.31926262 -0.52901644 -1.413135 2
0.3152691 -0.52605414 -1.4001633 2
0.31124353 -0.5230855 -1.3872838 2
0.3071859 -0.52011055 -1.3744967 2
0.30309606 -0.5171293 -1.3618019 2
0.2997675 -0.5145397 -1.3496346 2
0.29641032 -0.51194453 -1.3375497 2
0.29382145 -0.50974244 -1.3259718 2
0.29040897 -0.50713634 -1.3140458 2
0.2869681 -0.50452465 -1.3022017 2
0.2843008 -0.5023071 -1.2908497 2
0.28160858 -0.50008464 -1.2795694 2
0.2780856 -0.4974568 -1.2679613 2
0.27614915 -0.49562496 -1.2572241 2
0.27338207 -0.49338776 -1.2461592 2
0.27059007 -0.49114567 -1.2351661 2
0.2685858 -0.4893005 -1.2246237 2
0.26737475 -0.48785335 -1.2145169 2
0.2653296 -0.48600012 -1.2040925 2
0.263263 -0.48414266 -1.1937296 2
0.26199496 -0.48268425 -1.1837869 2
0.25988746 -0.48081875 -1.1735421 2
0.258582 -0.47935295 -1.163707 2
0.25725877 -0.4778837 -1.1539233 2
0.25591767 -0.47641093 -1.1441908 2
0.25455868 -0.47493464 -1.1345096 2
0.2523514 -0.47304946 -1.124552 2
0.250955 -0.47156578 -1.1149786 2
0.24954093 -0.4700786 -1.1054565 2
0.24727297 -0.46818143 -1.0956733 2
0.24582136 -0.4666869 -1.0862588 2
0.24435198 -0.46518886 -1.0768956 2
0.24286473 -0.46368724 -1.0675838 2
0.24135971 -0.46218216 -1.0583231 2
0.23983681 -0.46067357 -1.0491139 2
0.23744953 -0.45875287 -1.0396744 2
0.23504078 -0.456828 -1.0302964 2
0.2326107 -0.4548989 -1.02098 2
0.23015916 -0.45296562 -1.0117252 2
0.22683251 -0.4506181 -1.0022709 2
0.2243365 -0.448676 -0.9931443 2
0.22096181 -0.44631904 -0.9838284 2
0.21842122 -0.44436818 -0.9748301 2
0.21499836 -0.44200176 -0.96565276 2
0.21241319 -0.44004208 -0.95678264 2
0.20980668 -0.43807822 -0.947974 2
0.20717871 -0.43611014 -0.939227 2
0.20452952 -0.43413782 -0.9305415 2
0.20185876 -0.43216133 -0.92191756 2
0.20003831 -0.4305941 -0.91356486 2
0.19732666 -0.4286095 -0.90505886 2
0.19546878 -0.42703485 -0.89681387 2
0.19359314 -0.4254567 -0.88862026 2
0.19169962 -0.4238751 -0.88047785 2
0.18978834 -0.4222899 -0.87238675 2
0.18785918 -0.4207012 -0.864347 2
0.18591213 -0.41910905 -0.85635847 2
0.18483329 -0.41792965 -0.8485899 2
0.18374002 -0.4167474 -0.8408624 2
0.18263257 -0.4155624 -0.83317596 2
0.18240213 -0.41479188 -0.82568383 2
0.18126798 -0.41360152 -0.8180742 2
0.1810143 -0.41282648 -0.8106488 2
0.1807499 -0.4120493 -0.8032541 2
0.18137324 -0.4116887 -0.79602295 2
0.18108928 -0.4109077 -0.78868467 2
0.18169641 -0.41054398 -0.7814997 2
0.18229663 -0.41017884 -0.77433515 2
0.18288958 -0.40981227 -0.76719123 2
0.1834755 -0.4094444 -0.7600678 2
0.18496323 -0.4094959 -0.75306684 2
0.18553662 -0.4091255 -0.7459793 2
0.18701541 -0.40917528 -0.739004 2
0.18849075 -0.40922427 -0.732039 2
0.1899625 -0.40927267 -0.7250842 2
0.1923486 -0.4097429 -0.718216 2
0.1947347 -0.4102131 -0.7113478 2
0.19619918 -0.41026008 -0.7044136 2
0.1985836 -0.41073 -0.6975506 2
0.20096791 -0.41119987 -0.69068754 2
0.20427907 -0.41209412 -0.68387514 2
0.20666516 -0.4125644 -0.677007 2
0.20905125 -0.41303462 -0.67013884 2
0.21143734 -0.4135049 -0.66327065 2
0.21475732 -0.41440088 -0.6564327 2
0.218081 -0.41529763 -0.64958435 2
0.22140825 -0.41619503 -0.6427259 2
0.22473896 -0.4170931 -0.6358571 2
0.2290144 -0.41841912 -0.6289877 2
0.23329687 -0.41974652 -0.62209785 2
0.23758662 -0.42107528 -0.61518747 2
0.2428298 -0.42283374 -0.6082508 2
0.24808383 -0.42459422 -0.6012834 2
0.25334847 -0.4263569 -0.5942852 2
0.2595755 -0.4285509 -0.5872351 2
0.26486337 -0.43031812 -0.58017015 2
0.2711172 -0.4325174 -0.57304317 2
0.2783425 -0.4351498 -0.56583863 2
0.28654444 -0.4382164 -0.5585411 2
0.29572845 -0.44171828 -0.5511353 2
0.30686247 -0.44608778 -0.5435538 2
0.31995714 -0.45132715 -0.535766 1
0.33695507 -0.4583025 -0.5276168 1
0.36271703 -0.46918035 -0.5187082 1
0.5315348 -0.67450106 -1.8263083 1
0.52188385 -0.6681499 -1.8052528 1
0.5091814 -0.66020864 -1.7821286 1
0.49640048 -0.6522519 -1.7592301 1
0.48804367 -0.64665014 -1.7398758 1
0.47586894 -0.63906 -1.7179458 1
0.46361935 -0.6314552 -1.6962311 1
0.44978333 -0.62304336 -1.6736567 1
0.43359292 -0.61342597 -1.6497204 1
0.41882837 -0.6045839 -1.6271057 1
0.40397823 -0.59572506 -1.6047372 1
0.39209414 -0.5884394 -1.5846837 1
0.38090336 -0.5815376 -1.5653473 1
0.3711778 -0.5754189 -1.5472198 2
0.36215973 -0.56968683 -1.5297685 2
0.3561648 -0.5655392 -1.514468 2
0.34935522 -0.5609839 -1.498799 2
0.34327292 -0.5568191 -1.4837497 2
0.33714795 -0.55264586 -1.4688237 2
0.3325343 -0.54926485 -1.454973 2
0.32788503 -0.5458768 -1.4412248 2
0.32241952 -0.5420807 -1.4271135 2
0.31847966 -0.53907967 -1.4140365 2
0.31372356 -0.5356706 -1.4005961 2
0.31050384 -0.53305864 -1.3881593 2
0.30646777 -0.53003865 -1.3753593 2
0.30239975 -0.5270123 -1.3626516 2
0.29829955 -0.5239796 -1.3500361 2
0.29496038 -0.5213442 -1.3379431 2
0.29159284 -0.51870304 -1.325932 2
0.28899336 -0.51646054 -1.3144228 2
0.2863691 -0.5142131 -1.3029854 2
0.2829194 -0.51155585 -1.2912104 2
0.2802434 -0.5092982 -1.2799218 2
0.27754247 -0.5070357 -1.2687049 2
0.2748165 -0.50476825 -1.2575599 2
0.27206564 -0.5024958 -1.2464867 2
0.27009904 -0.5006252 -1.2358692 2
0.2681111 -0.4987504 -1.2253131 2
0.26610172 -0.4968713 -1.2148186 2
0.264071 -0.49498802 -1.2043858 2
0.2620188 -0.49310052 -1.1940143 2
0.2607634 -0.4916172 -1.1840627 2
0.25949013 -0.49013042 -1.1741624 2
0.2581991 -0.48864007 -1.1643133 2
0.2560668 -0.48673677 -1.1541727 2
0.25473833 -0.4852391 -1.1444314 2
0.25339198 -0.4837379 -1.1347413 2
0.25202787 -0.48223317 -1.1251025 2
0.25064588 -0.48072493 -1.1155151 2
0.24924612 -0.47921318 -1.105979 2
0.2478286 -0.4776979 -1.096494 2
0.2463932 -0.47617912 -1.0870605 2
0.24410224 -0.4742446 -1.0773764 2
0.243469 -0.47313106 -1.0683472 2
0.24198008 -0.47160178 -1.0590675 2
0.24047339 -0.47006893 -1.049839 2
0.2381041 -0.46811897 -1.0403807 2
0.23486674 -0.4657507 -1.0307078 2
0.23330128 -0.46420628 -1.0216486 2
0.23001754 -0.4618289 -1.012109 2
0.22756088 -0.4598617 -1.002902 2
0.22508287 -0.45789027 -0.9937566 2
0.22172785 -0.4554988 -0.9844222 2
0.21920526 -0.45351863 -0.975405 2
0.2158022 -0.4511177 -0.9662091 2
0.21237421 -0.44871187 -0.957085 2
0.20978391 -0.44671834 -0.9482627 2
0.20803666 -0.4451381 -0.93972677 2
0.20540535 -0.44313645 -0.9310224 2
0.20275271 -0.44113064 -0.9223796 2
0.2000786 -0.43912053 -0.9137984 2
0.19738317 -0.4371063 -0.9052787 2
0.19553971 -0.43550712 -0.89701974 2
0.19367838 -0.4339044 -0.88881207 2
0.19179928 -0.43229818 -0.88065565 2
0.1899023 -0.43068844 -0.8725506 2
0.18798757 -0.42907518 -0.8644968 2
0.18605506 -0.42745847 -0.8564943 2
0.18498874 -0.42625958 -0.8487115 2
0.1839081 -0.42505795 -0.8409697 2
0.18281317 -0.42385346 -0.83326894 2
0.18170416 -0.42264616 -0.82560927 2
0.18147194 -0.42185885 -0.8181384 2
0.181229 -0.42106944 -0.8106984 2
0.18097544 -0.42027795 -0.8032892 2
0.18071115 -0.41948438 -0.7959107 2
0.1813345 -0.41911286 -0.7886903 2
0.18105066 -0.41831535 -0.78136826 2
0.18165791 -0.41794074 -0.7741941 2
0.18225813 -0.41756463 -0.76704043 2
0.1828512 -0.41718715 -0.7599073 2
0.18434429 -0.41723424 -0.7528964 2
0.18492496 -0.41685432 -0.7457991 2
0.18640912 -0.41689962 -0.7388139 2
0.18788981 -0.41694427 -0.7318388 2
0.18936682 -0.4169882 -0.72487414 2
0.19175649 -0.41745913 -0.7179957 2
0.19322824 -0.417502 -0.7110463 2
0.19561613 -0.41797262 -0.704173 2
0.198004 -0.4184432 -0.6972997 2
0.20039189 -0.41891378 -0.6904264 2
0.20277977 -0.41938442 -0.6835531 2
0.20516765 -0.419855 -0.6766798 2
0.20848417 -0.4207558 -0.66984665 2
0.21180415 -0.42165726 -0.6630032 2
0.21419561 -0.42212856 -0.6561197 2
0.21752095 -0.4230311 -0.6492609 2
0.22084999 -0.42393434 -0.64239186 2
0.22418249 -0.4248383 -0.6355125 2
0.22845781 -0.42617524 -0.62863237 2
0.23274028 -0.4275136 -0.62173164 2
0.23702991 -0.42885333 -0.6148104 2
0.2422713 -0.43062782 -0.6078627 2
0.24752343 -0.4324044 -0.60088414 2
0.25373435 -0.43461716 -0.5938586 2
0.2590096 -0.43639833 -0.58681345 2
0.26524734 -0.43861634 -0.57971096 2
0.27149928 -0.4408372 -0.5725674 2
0.27872074 -0.4434963 -0.565346 2
0.2859602 -0.4461589 -0.55807334 2
0.29609406 -0.45013344 -0.5506083 2
0.3062564 -0.45411366 -0.5430612 2
0.32029712 -0.4598469 -0.5352028 1
0.3392017 -0.46777463 -0.5269091 1
0.3668611 -0.4796523 -0.51783305 1
0.538095 -0.69089526 -1.8337481 1
0.52850163 -0.68445677 -1.8126256 1
0.5128839 -0.67480975 -1.7871835 1
0.49717343 -0.6651445 -1.762008 1
0.48960483 -0.65986305 -1.7431803 1
0.47898138 -0.6529689 -1.7223155 1
0.4697944 -0.64686316 -1.7027309 1
0.4575311 -0.6391405 -1.6811707 1
0.4429258 -0.63019836 -1.6582294 1
0.42823505 -0.6212393 -1.6355343 1
0.41269946 -0.61186117 -1.6125631 1
0.39935791 -0.6036734 -1.5913993 1
0.38593793 -0.59547013 -1.570461 1
0.37396884 -0.5880581 -1.5507619 1
0.36346126 -0.5814395 -1.5322709 2
0.3551942 -0.57602036 -1.5154538 2
0.3476435 -0.5709951 -1.4992819 2
0.34158647 -0.5667695 -1.4842257 2
0.33548677 -0.56253546 -1.4692926 2
0.33089483 -0.5591039 -1.4554346 2
0.32626724 -0.5556654 -1.441679 2
0.321604 -0.55221975 -1.428026 2
0.31690526 -0.54876715 -1.4144756 2
0.31295323 -0.5457144 -1.401483 2
0.30896914 -0.5426553 -1.388583 2
0.30495298 -0.5395898 -1.3757752 2
0.3016925 -0.53692603 -1.3634996 2
0.29761386 -0.53384835 -1.3508713 2
0.2942946 -0.5311729 -1.3387651 2
0.29094684 -0.52849185 -1.326741 2
0.2875706 -0.52580523 -1.314799 2
0.28496242 -0.5235226 -1.3033532 2
0.28153086 -0.5208251 -1.2915702 2
0.27887106 -0.5185323 -1.2802732 2
0.27618635 -0.5162346 -1.269048 2
0.27347672 -0.51393193 -1.2578946 2
0.27074206 -0.5116244 -1.246813 2
0.2687899 -0.5097237 -1.236187 2
0.26681638 -0.5078188 -1.2256224 2
0.2648214 -0.50590974 -1.2151192 2
0.26361775 -0.50440925 -1.2050459 2
0.2615819 -0.5024921 -1.1946608 2
0.2603408 -0.5009842 -1.1846952 2
0.25826395 -0.49905896 -1.174428 2
0.25698543 -0.4975437 -1.1645701 2
0.25568926 -0.4960249 -1.1547635 2
0.2543751 -0.49450266 -1.1450081 2
0.2530433 -0.4929769 -1.1353041 2
0.2516935 -0.49144763 -1.1256514 2
0.25115478 -0.49033082 -1.1163719 2
0.24977124 -0.48879486 -1.1068165 2
0.2475375 -0.4868387 -1.0970008 2
0.2461164 -0.48529536 -1.0875533 2
0.24467766 -0.4837485 -1.078157 2
0.24322104 -0.48219812 -1.068812 2
0.24258602 -0.48106235 -1.0598094 2
0.24025428 -0.47908688 -1.0502758 2
0.23874414 -0.477526 -1.0410848 2
0.23552656 -0.4751233 -1.0313933 2
0.2331307 -0.47313517 -1.0220443 2
0.23071337 -0.47114283 -1.0127568 2
0.22742462 -0.46872604 -1.0032706 2
0.22496271 -0.46672493 -0.9941114 2
0.2216258 -0.46429873 -0.98476356 2
0.21911943 -0.4622888 -0.9757326 2
0.21659172 -0.4602747 -0.96676326 2
0.2131834 -0.45783442 -0.9576206 2
0.2106111 -0.4558115 -0.94877946 2
0.20801747 -0.4537844 -0.9399998 2
0.20540237 -0.45175308 -0.93128175 2
0.20276582 -0.44971752 -0.92262524 2
0.20010805 -0.4476778 -0.9140303 2
0.19829857 -0.44605792 -0.9057009 2
0.19559968 -0.44401008 -0.89722395 2
0.19375277 -0.4423828 -0.8890022 2
0.1918881 -0.44075203 -0.88083184 2
0.19000554 -0.43911773 -0.87271273 2
0.18810523 -0.4374799 -0.864645 2
0.18618703 -0.43583858 -0.8566285 2
0.18425107 -0.43419373 -0.8486633 2
0.18318129 -0.4329723 -0.84091234 2
0.1820972 -0.43174803 -0.8332025 2
0.18188643 -0.4309485 -0.82568634 2
0.18077564 -0.42971897 -0.81805336 2
0.18054175 -0.4289149 -0.8106039 2
0.18029726 -0.42810875 -0.8031852 2
0.1809367 -0.42772943 -0.79592955 2
0.1806724 -0.4269194 -0.7885673 2
0.18129587 -0.42653698 -0.78135777 2
0.18101203 -0.42572308 -0.7740519 2
0.1816194 -0.42533743 -0.7668886 2
0.18221962 -0.42495042 -0.7597457 2
0.1837182 -0.4249931 -0.7527248 2
0.1843059 -0.42460358 -0.74561787 2
0.18579555 -0.42464453 -0.7386226 2
0.18728161 -0.42468476 -0.7316376 2
0.1887641 -0.42472422 -0.7246629 2
0.19115722 -0.42519587 -0.7177742 2
0.19263434 -0.42523432 -0.71081483 2
0.1950258 -0.4257056 -0.7039313 2
0.19741726 -0.42617697 -0.69704777 2
0.19980872 -0.42664826 -0.69016415 2
0.20220017 -0.42711955 -0.6832806 2
0.20551658 -0.42802578 -0.676442 2
0.20790982 -0.42849743 -0.66955334 2
0.21123159 -0.4294048 -0.66269946 2
0.21455693 -0.43031275 -0.6558352 2
0.21695375 -0.43078512 -0.6489363 2
0.22028446 -0.4316942 -0.6420567 2
0.22455442 -0.43304104 -0.6351811 2
0.22883153 -0.43438923 -0.628285 2
0.23311567 -0.43573892 -0.6213683 2
0.23740709 -0.43708998 -0.61443114 2
0.24264836 -0.43888086 -0.6074672 2
0.24790037 -0.4406739 -0.60047245 2
0.25316298 -0.442469 -0.5934469 2
0.25938463 -0.44470578 -0.5863689 2
0.26467037 -0.4465055 -0.57927674 2
0.2718705 -0.44918776 -0.5720899 2
0.27908826 -0.45187354 -0.56485176 2
0.2863239 -0.45456278 -0.55756235 2
0.29549158 -0.45813817 -0.55012697 2
0.30660188 -0.46260166 -0.5425149 2
0.31966555 -0.4679554 -0.53469545 1
0.33950543 -0.4764133 -0.52632403 1
0.5365516 -0.7017157 -1.8211267 1
0.519523 -0.69113183 -1.7944839 1
0.5009047 -0.67971843 -1.7670133 1
0.4889003 -0.67193174 -1.7448232 1
0.47981548 -0.66575295 -1.725038 1
0.47367132 -0.6611863 -1.7075963 1
0.4652245 -0.6553914 -1.6886766 1
0.45068944 -0.64633155 -1.6656649 1
0.43682456 -0.6376619 -1.6434264 1
0.42287767 -0.62897605 -1.6214237 1
0.40733027 -0.6194586 -1.5986238 1
0.39245474 -0.61033165 -1.5765918 1
0.3790195 -0.60200477 -1.5558188 1
0.3670349 -0.5944801 -1.536274 1
0.35421264 -0.58653224 -1.516438 2
0.34746087 -0.5818458 -1.5007455 2
0.3414327 -0.5775601 -1.4856722 2
0.33459008 -0.57285583 -1.4702414 2
0.33002162 -0.5693741 -1.4563706 2
0.32464218 -0.5654744 -1.442132 2
0.32000065 -0.5619783 -1.4284716 2
0.31688118 -0.5592984 -1.4158341 2
0.31217194 -0.55578893 -1.4023685 2
0.30820954 -0.5526848 -1.3894556 2
0.30421495 -0.54957426 -1.3766348 2
0.3001883 -0.54645747 -1.3639064 2
0.29691744 -0.5437477 -1.351705 2
0.29282844 -0.54061866 -1.3391562 2
0.29029 -0.5383114 -1.3275483 2
0.28693354 -0.5355848 -1.315593 2
0.28434348 -0.5332674 -1.3041339 2
0.28093183 -0.5305299 -1.2923375 2
0.27829003 -0.52820235 -1.2810272 2
0.27482307 -0.525454 -1.2693899 2
0.27293158 -0.5235324 -1.2586218 2
0.27021503 -0.52119005 -1.2475269 2
0.26827908 -0.5192597 -1.236887 2
0.26551437 -0.5169078 -1.2259305 2
0.2643429 -0.5153863 -1.2157918 2
0.2623428 -0.5134433 -1.2053366 2
0.26032126 -0.51149607 -1.194943 2
0.25990736 -0.51038194 -1.185326 2
0.2578467 -0.50842696 -1.1750451 2
0.25658262 -0.5068872 -1.1651733 2
0.25530076 -0.50534385 -1.1553526 2
0.25400114 -0.503797 -1.1455833 2
0.25350702 -0.50266707 -1.1361972 2
0.25217342 -0.5011136 -1.1265254 2
0.2508222 -0.4995566 -1.1169047 2
0.24945295 -0.49799603 -1.1073354 2
0.24889648 -0.49685383 -1.0981289 2
0.24666119 -0.49486446 -1.0883508 2
0.24523854 -0.4932934 -1.0789353 2
0.24463391 -0.49214172 -1.0698673 2
0.24317741 -0.49056393 -1.0605493 2
0.24170315 -0.48898274 -1.0512826 2
0.23936975 -0.486974 -1.0417866 2
0.23617196 -0.4845369 -1.0320766 2
0.2337941 -0.4825194 -1.0227087 2
0.23139477 -0.48049772 -1.0134025 2
0.22812581 -0.47804648 -1.0038975 2
0.2256819 -0.47601604 -0.9947195 2
0.22236478 -0.4735554 -0.9853531 2
0.21902275 -0.47108972 -0.9760586 2
0.21651113 -0.46904594 -0.96707547 2
0.21312094 -0.4665708 -0.95791936 2
0.21056485 -0.46451825 -0.9490645 2
0.20798731 -0.4624614 -0.94027114 2
0.20538843 -0.46040046 -0.9315394 2
0.2036326 -0.45876372 -0.9230831 2
0.2009927 -0.4566946 -0.91446936 2
0.19833148 -0.45462132 -0.9059171 2
0.19651854 -0.4529733 -0.89762497 2
0.1938163 -0.4508919 -0.88919073 2
0.19196606 -0.44923657 -0.88100636 2
0.19009793 -0.44757771 -0.8728733 2
0.18821192 -0.44591534 -0.8647915 2
0.18630815 -0.4442495 -0.856761 2
0.18438661 -0.4425801 -0.84878176 2
0.18332934 -0.4413392 -0.84101653 2
0.18225789 -0.44009548 -0.83329237 2
0.18117213 -0.43884897 -0.82560927 2
0.1809597 -0.4380327 -0.8181145 2
0.18073666 -0.43721431 -0.81065047 2
0.18050289 -0.4363938 -0.80321723 2
0.1802584 -0.4355712 -0.7958149 2
0.18089783 -0.43518096 -0.7885699 2
0.18153024 -0.4347893 -0.7813456 2
0.18125725 -0.4339611 -0.77402514 2
0.18187356 -0.43356627 -0.76684695 2
0.18248272 -0.43317002 -0.75968933 2
0.18308485 -0.4327724 -0.75255215 2
0.1845851 -0.43280995 -0.74553156 2
0.1851747 -0.43240988 -0.73843026 2
0.18666613 -0.43244565 -0.7314353 2
0.18906474 -0.43291837 -0.72453123 2
0.1905508 -0.43295312 -0.71755165 2
0.19203329 -0.43298715 -0.7105823 2
0.1944282 -0.43345916 -0.7036885 2
0.19682324 -0.43393117 -0.6967947 2
0.19921827 -0.43440318 -0.6899009 2
0.2016133 -0.4348752 -0.68300706 2
0.2049315 -0.43578726 -0.6761579 2
0.20825326 -0.43670005 -0.6692986 2
0.21065176 -0.4371727 -0.6623945 2
0.21397889 -0.43808657 -0.6555198 2
0.2173096 -0.43900114 -0.6486348 2
0.22064376 -0.43991637 -0.64173955 2
0.22398162 -0.44083232 -0.634834 2
0.22825861 -0.44219148 -0.62792706 2
0.23254275 -0.44355208 -0.62099963 2
0.23683405 -0.4449141 -0.61405164 2
0.24207354 -0.44672108 -0.6070766 2
0.24732363 -0.4485302 -0.6000708 2
0.25352907 -0.4507857 -0.59301734 2
0.2588023 -0.45259935 -0.58594483 2
0.26503444 -0.4548601 -0.5788144 2
0.27223074 -0.45756906 -0.5716108 2
0.27944493 -0.4602815 -0.56435585 2
0.28763032 -0.46344346 -0.55700725 2
0.29583716 -0.46660972 -0.549597 2
0.3069365 -0.47112042 -0.54196703 2
0.31998563 -0.47653162 -0.534129 1
0.3426801 -0.4864251 -0.5255484 1
0.52166295 -0.705139 -1.7984016 1
0.5075723 -0.6960352 -1.7742424 1
0.4904163 -0.68527275 -1.7481205 1
0.48286808 -0.6798309 -1.7293985 1
0.47826064 -0.67602307 -1.7129984 1
0.47136295 -0.670973 -1.6951005 1
0.4583987 -0.66261846 -1.6730921 1
0.4461099 -0.6546606 -1.6518364 1
0.43147933 -0.64545035 -1.6292315 1
0.41449082 -0.6349846 -1.6053236 1
0.3989246 -0.62532634 -1.5827153 1
0.38555217 -0.6168913 -1.5618818 1
0.37210143 -0.6084409 -1.5412738 1
0.35780776 -0.5995607 -1.5203958 1
0.3480301 -0.59315217 -1.502698 2
0.3412645 -0.5883918 -1.4871167 2
0.3344525 -0.5836222 -1.471669 2
0.32913756 -0.579675 -1.457305 2
0.3237834 -0.57571995 -1.4430541 2
0.31994057 -0.5725901 -1.429846 2
0.31528866 -0.5690371 -1.4162705 2
0.3113799 -0.5658942 -1.4032522 2
0.3074391 -0.562745 -1.3903263 2
0.3034662 -0.55958945 -1.3774927 2
0.3002454 -0.5568457 -1.365191 2
0.29621005 -0.5536779 -1.3525369 2
0.29214275 -0.55050373 -1.3399751 2
0.2896223 -0.5481617 -1.3283539 2
0.28628576 -0.5453952 -1.3163854 2
0.2829206 -0.54262304 -1.304499 2
0.28032184 -0.54026556 -1.2931033 2
0.27690136 -0.5374825 -1.281376 2
0.27425086 -0.5351148 -1.2701291 2
0.27157545 -0.5327422 -1.258954 2
0.26967716 -0.5307864 -1.2482388 2
0.2669536 -0.5284043 -1.2372023 2
0.2650106 -0.52643967 -1.2266154 2
0.26304638 -0.52447087 -1.21609 2
0.2618698 -0.52292085 -1.2059937 2
0.2606753 -0.5213674 -1.1959488 2
0.2594632 -0.5198104 -1.1859552 2
0.25741863 -0.5178258 -1.1756606 2
0.2569852 -0.51668584 -1.1661217 2
0.25571954 -0.5151183 -1.156282 2
0.25443602 -0.5135473 -1.1464936 2
0.25313473 -0.5119727 -1.1367564 2
0.25263894 -0.51082057 -1.1273971 2
0.2513038 -0.5092393 -1.1177573 2
0.25077772 -0.5080812 -1.1084852 2
0.24940872 -0.5064933 -1.098943 2
0.24802184 -0.5049019 -1.089452 2
0.2466172 -0.5033069 -1.0800123 2
0.24519467 -0.5017085 -1.070624 2
0.24375439 -0.5001066 -1.0612869 2
0.24229622 -0.49850112 -1.0520011 2
0.23998082 -0.49646306 -1.0424862 2
0.23764408 -0.49442083 -1.0330329 2
0.23444295 -0.4919446 -1.023371 2
0.23206174 -0.48989362 -1.0140458 2
0.22881246 -0.48740792 -1.0045223 2
0.22638667 -0.48534817 -0.99532545 2
0.22308922 -0.482853 -0.9859405 2
0.21976697 -0.48035288 -0.97662735 2
0.21727347 -0.47827977 -0.9676254 2
0.21390307 -0.47577018 -0.95845073 2
0.21136487 -0.47368824 -0.949577 2
0.20880544 -0.47160214 -0.9407648 2
0.20622456 -0.4695118 -0.9320142 2
0.20362222 -0.46741724 -0.9233252 2
0.20186293 -0.46575242 -0.9149062 2
0.1992197 -0.46364975 -0.9063351 2
0.19655502 -0.4615429 -0.89782554 2
0.19473875 -0.45986688 -0.8895707 2
0.19203317 -0.45775193 -0.8811792 2
0.19017935 -0.45606852 -0.8730321 2
0.18830776 -0.4543816 -0.8649363 2
0.18641841 -0.45269108 -0.8568918 2
0.18451118 -0.45099717 -0.84889865 2
0.18346667 -0.44973683 -0.84111917 2
0.18240774 -0.44847363 -0.8333807 2
0.18133461 -0.4472077 -0.82568324 2
0.18113303 -0.4463771 -0.81817394 2
0.1809206 -0.44554436 -0.8106954 2
0.18069756 -0.4447096 -0.80324763 2
0.18046391 -0.44387263 -0.7958306 2
0.18111241 -0.44347322 -0.7885709 2
0.18085909 -0.44263244 -0.7812103 2
0.1814915 -0.44222987 -0.7739968 2
0.18211675 -0.4418258 -0.76680374 2
0.18273497 -0.44142044 -0.7596312 2
0.18334591 -0.44101357 -0.75247926 2
0.18394983 -0.4406054 -0.74534774 2
0.18545198 -0.44063783 -0.73832744 2
0.18695056 -0.44066954 -0.7313173 2
0.18844557 -0.44070053 -0.7243175 2
0.19084775 -0.44117397 -0.7174032 2
0.1923374 -0.4412039 -0.7104187 2
0.19473767 -0.44167697 -0.7035095 2
0.19622207 -0.44170588 -0.6965405 2
0.19953847 -0.44262308 -0.68969107 2
0.20193875 -0.4430961 -0.6827819 2
0.20526052 -0.44401437 -0.67591715 2
0.20766258 -0.4444878 -0.6690028 2
0.21098971 -0.4454071 -0.66212267 2
0.2143203 -0.44632715 -0.65523225 2
0.21765459 -0.44724786 -0.6483316 2
0.22099233 -0.4481693 -0.64142066 2
0.22433364 -0.44909137 -0.63449955 2
0.22861242 -0.45046186 -0.6275766 2
0.23289835 -0.45183378 -0.6206332 2
0.23812878 -0.45365542 -0.61366755 2
0.24243069 -0.4550305 -0.606678 2
0.24768066 -0.456856 -0.5996559 2
0.25294137 -0.45868367 -0.59260315 2
0.2601019 -0.4614129 -0.585475 2
0.26538765 -0.4632455 -0.57835037 2
0.27163208 -0.46553057 -0.57116246 2
0.27979064 -0.4687202 -0.56385833 2
0.28797054 -0.471914 -0.55649257 2
0.29712534 -0.47556353 -0.5490174 2
0.3082155 -0.48012173 -0.5413645 1
0.32220888 -0.48604292 -0.5334447 1
0.35062706 -0.49876124 -0.52445304 1
0.53117 -0.7233767 -1.8079371 1
0.51270664 -0.711665 -1.7803497 1
0.49859524 -0.70242554 -1.756382 1
0.48886788 -0.69566476 -1.7359414 1
0.4850502 -0.69222134 -1.7200193 1
0.47895145 -0.6875211 -1.7025902 1
0.46605372 -0.6790591 -1.6805112 1
0.45458174 -0.6714162 -1.6597104 1
0.44002306 -0.66208863 -1.6370301 1
0.42084503 -0.65023607 -1.6114995 1
0.40458977 -0.6400359 -1.5883205 1
0.39203787 -0.63191116 -1.5679374 1
0.3794111 -0.6237716 -1.5477695 1
0.36594677 -0.61519784 -1.5273216 1
0.35240388 -0.6066087 -1.5070994 1
0.3433807 -0.6005248 -1.4900148 2
0.3366047 -0.5956911 -1.4745345 2
0.3290125 -0.59042746 -1.4587128 2
0.3236854 -0.58641756 -1.4444444 2
0.31831908 -0.58239985 -1.4302888 2
0.3144641 -0.5792182 -1.4171654 2
0.31057692 -0.57603025 -1.4041343 2
0.3066578 -0.572836 -1.3911955 2
0.30270648 -0.56963533 -1.3783491 2
0.29872322 -0.5664284 -1.3655949 2
0.29549193 -0.5636388 -1.3533671 2
0.29223216 -0.5608436 -1.3412213 2
0.2889439 -0.55804276 -1.3291577 2
0.285627 -0.5552363 -1.3171761 2
0.28307295 -0.55284923 -1.30569 2
0.27970088 -0.5500319 -1.2938675 2
0.2770952 -0.54763466 -1.2825302 2
0.27366793 -0.5448064 -1.2708666 2
0.27180886 -0.54282546 -1.260071 2
0.2683282 -0.53998667 -1.2485614 2
0.2672248 -0.5384237 -1.238282 2
0.2644961 -0.5360023 -1.2272985 2
0.26254797 -0.53400373 -1.2167594 2
0.26219308 -0.5328574 -1.2070165 2
0.26020586 -0.5308511 -1.1965903 2
0.25900793 -0.5292696 -1.1865827 2
0.25779235 -0.5276845 -1.1766263 2
0.2565589 -0.5260959 -1.1667213 2
0.25530756 -0.5245038 -1.1568675 2
0.25485647 -0.52333856 -1.1474016 2
0.2543912 -0.5221704 -1.1379766 2
0.25309002 -0.5205685 -1.1282666 2
0.25177097 -0.51896304 -1.1186078 2
0.25125933 -0.5177858 -1.1093162 2
0.24990642 -0.5161737 -1.0997548 2
0.2493645 -0.5149905 -1.0905505 2
0.24797773 -0.5133717 -1.0810866 2
0.24657321 -0.5117494 -1.071674 2
0.2451508 -0.5101236 -1.0623126 2
0.24371064 -0.50849426 -1.0530026 2
0.24141514 -0.5064273 -1.0434637 2
0.23825872 -0.5039215 -1.0337114 2
0.23591852 -0.5018457 -1.0243007 2
0.23271406 -0.49933052 -1.014687 2
0.2303294 -0.4972459 -1.0054045 2
0.22707677 -0.49472123 -0.9959291 2
0.22379923 -0.4921916 -0.98652565 2
0.22134686 -0.49009365 -0.97743815 2
0.21802127 -0.48755455 -0.96817315 2
0.2155242 -0.48544788 -0.95921385 2
0.21215045 -0.4828993 -0.9500873 2
0.20960903 -0.48078382 -0.9412563 2
0.20704603 -0.4786641 -0.9324868 2
0.20446181 -0.4765402 -0.9237789 2
0.20271873 -0.4748512 -0.9153408 2
0.19922912 -0.4722798 -0.90654767 2
0.19744682 -0.47058302 -0.89822245 2
0.1947788 -0.46844262 -0.8897556 2
0.19295895 -0.46673846 -0.88153815 2
0.19112146 -0.46503085 -0.87337196 2
0.18839288 -0.46287853 -0.86507946 2
0.18651783 -0.46116346 -0.857021 2
0.18462503 -0.459445 -0.84901375 2
0.18359303 -0.45816517 -0.84122 2
0.18254673 -0.4568826 -0.8334673 2
0.18148625 -0.45559716 -0.8257556 2
0.1812954 -0.45475227 -0.8182317 2
0.18109381 -0.45390522 -0.8107386 2
0.1808815 -0.4530561 -0.8032763 2
0.18065858 -0.45220488 -0.79584473 2
0.18042493 -0.45135152 -0.7884439 2
0.18107343 -0.45094115 -0.78119504 2
0.18171489 -0.45052934 -0.77396667 2
0.18145275 -0.44967037 -0.76664793 2
0.18207812 -0.4492554 -0.75946575 2
0.18269634 -0.44883907 -0.7523041 2
0.18330741 -0.4484213 -0.7451629 2
0.18481493 -0.4484493 -0.73813254 2
0.18631887 -0.4484766 -0.7311125 2
0.18781924 -0.4485032 -0.7241027 2
0.19022489 -0.4489773 -0.7171781 2
0.19263065 -0.4494514 -0.7102535 2
0.19412386 -0.4494766 -0.7032642 2
0.19652772 -0.44995034 -0.69634473 2
0.1989317 -0.45042413 -0.68942523 2
0.20133555 -0.45089787 -0.6825058 2
0.2046591 -0.45182192 -0.6756305 2
0.20706475 -0.45229608 -0.66870594 2
0.21039355 -0.4532212 -0.6618152 2
0.21372604 -0.45414704 -0.65491426 2
0.217062 -0.4550736 -0.6480031 2
0.22040153 -0.45600086 -0.64108163 2
0.22467482 -0.45738125 -0.6341633 2
0.22895527 -0.458763 -0.6272245 2
0.23324287 -0.4601462 -0.6202651 2
0.23753762 -0.4615308 -0.61328524 2
0.24277687 -0.46337068 -0.60627776 2
0.24802685 -0.46521264 -0.59923947 2
0.25422847 -0.46751124 -0.5921531 2
0.25950158 -0.46935773 -0.5850481 2
0.2657299 -0.47166163 -0.57788473 2
0.27197254 -0.47396827 -0.5706803 2
0.2801255 -0.47718966 -0.56335914 2
0.28829992 -0.48041523 -0.5559763 2
0.29744732 -0.4841017 -0.5484838 2
0.30948007 -0.48916405 -0.5407597 1
0.32536924 -0.49606287 -0.5326993 1
0.51779735 -0.72741777 -1.7864504 1
0.5111643 -0.7222664 -1.7679446 1
0.49705005 -0.71289486 -1.744117 1
0.49327898 -0.70940584 -1.7281156 1
0.48573887 -0.70380116 -1.7095354 1
0.4744028 -0.6960755 -1.688453 1
0.46299553 -0.6883358 -1.6675756 1
0.4477569 -0.67846805 -1.644299 1
0.42865992 -0.6664671 -1.6186998 1
0.4117229 -0.65571547 -1.5949404 1
0.39771914 -0.6466403 -1.5734802 1
0.38591087 -0.63882154 -1.5537572 1
0.37403142 -0.6309888 -1.5342393 1
0.36131787 -0.622717 -1.5144364 1
0.34852958 -0.61443055 -1.494849 2
0.33796525 -0.6074061 -1.4769166 2
0.33117712 -0.60249877 -1.4615426 2
0.32434273 -0.59758234 -1.4463022 2
0.3182336 -0.5930834 -1.4316595 2
0.31440198 -0.58985704 -1.418518 2
0.3097632 -0.586197 -1.4050146 2
0.30586565 -0.5829577 -1.3920629 2
0.30193603 -0.57971203 -1.3792036 2
0.29797423 -0.57646 -1.3664366 2
0.29476285 -0.57363045 -1.3541956 2
0.29152286 -0.5707953 -1.3420367 2
0.28825438 -0.56795454 -1.3299599 2
0.2849574 -0.5651081 -1.3179653 2
0.28242147 -0.56268626 -1.3064656 2
0.2790692 -0.559829 -1.2946299 2
0.2764815 -0.55739695 -1.2832792 2
0.27307403 -0.5545288 -1.2716025 2
0.27043462 -0.55208653 -1.2604005 2
0.26856875 -0.5500713 -1.2496579 2
0.2666813 -0.5480519 -1.238977 2
0.26477265 -0.54602826 -1.2283573 2
0.26284254 -0.5440003 -1.2177994 2
0.26169646 -0.5424016 -1.2076701 2
0.26053274 -0.5407994 -1.197592 2
0.25935102 -0.5391936 -1.1875653 2
0.25815153 -0.5375843 -1.1775899 2
0.2569343 -0.53597146 -1.1676657 2
0.2565136 -0.5347903 -1.1581342 2
0.2552625 -0.53317076 -1.1483074 2
0.25481153 -0.5319836 -1.1388631 2
0.25434625 -0.53079355 -1.1294599 2
0.2530452 -0.52916425 -1.1197767 2
0.25254965 -0.5279683 -1.1104608 2
0.2520399 -0.5267695 -1.1011858 2
0.2506889 -0.5251304 -1.0916462 2
0.2501489 -0.5239256 -1.0824585 2
0.24793363 -0.5218415 -1.0727212 2
0.24736142 -0.5206305 -1.0636257 2
0.24510705 -0.5185387 -1.0540013 2
0.24283123 -0.5164427 -1.0444384 2
0.24053395 -0.5143425 -1.0349371 2
0.2373761 -0.5117981 -1.0252278 2
0.2341932 -0.50924873 -1.0155902 2
0.23098528 -0.5066945 -1.0060246 2
0.22859728 -0.5045763 -0.9967848 2
0.22534132 -0.5020126 -0.9873576 2
0.22206032 -0.49944395 -0.9780022 2
0.21960461 -0.4973125 -0.9689574 2
0.21627557 -0.49473435 -0.9597405 2
0.21292162 -0.49215132 -0.9505954 2
0.21039808 -0.4900065 -0.9417455 2
0.2078532 -0.48785746 -0.9329572 2
0.20528686 -0.48570424 -0.9242304 2
0.20269918 -0.4835468 -0.9155652 2
0.20009017 -0.4813851 -0.90696156 2
0.19832397 -0.47966415 -0.89861715 2
0.19567394 -0.47749442 -0.8901315 2
0.19300258 -0.4753204 -0.8817073 2
0.1911794 -0.47358823 -0.87352717 2
0.18933845 -0.47185254 -0.8653982 2
0.18747962 -0.47011328 -0.8573206 2
0.18560302 -0.46837056 -0.8492943 2
0.18370855 -0.46662432 -0.84131926 2
0.18267488 -0.46532226 -0.83355224 2
0.18162692 -0.4640174 -0.8258263 2
0.18144679 -0.46315813 -0.81828785 2
0.18125606 -0.46229684 -0.81078017 2
0.18105459 -0.4614334 -0.80330336 2
0.1808424 -0.46056783 -0.7958572 2
0.18150878 -0.46015 -0.78856784 2
0.18127704 -0.45928055 -0.7811781 2
0.18192744 -0.45885962 -0.7739349 2
0.18167603 -0.4579863 -0.7666016 2
0.18231034 -0.45756215 -0.7594046 2
0.1829375 -0.45713663 -0.7522281 2
0.18355763 -0.45670962 -0.74507207 2
0.1850723 -0.45673358 -0.7380266 2
0.1865834 -0.45675683 -0.7309914 2
0.18809092 -0.4567793 -0.72396654 2
0.18959486 -0.45680112 -0.7169519 2
0.19200408 -0.457276 -0.710017 2
0.19441342 -0.4577508 -0.70308214 2
0.19682264 -0.4582256 -0.6961473 2
0.19831765 -0.45824564 -0.68915826 2
0.2016412 -0.45917523 -0.6822776 2
0.20405042 -0.45965004 -0.67534274 2
0.20737922 -0.46058065 -0.66844666 2
0.2107116 -0.46151197 -0.6615403 2
0.21404755 -0.462444 -0.6546237 2
0.21738708 -0.4633767 -0.64769685 2
0.22073007 -0.4643101 -0.6407597 2
0.22500515 -0.46570182 -0.6338255 2
0.22928739 -0.4670949 -0.6268707 2
0.23357666 -0.4684894 -0.6198954 2
0.2378732 -0.4698853 -0.61289954 2
0.24311233 -0.47174156 -0.60587585 2
0.24836218 -0.4735999 -0.59882134 2
0.2545619 -0.47592008 -0.5917184 2
0.2598349 -0.47778302 -0.58459723 2
0.26606143 -0.48010844 -0.5774174 2
0.27230203 -0.48243666 -0.57019645 2
0.2804495 -0.48568988 -0.56285816 2
0.28861845 -0.4889472 -0.5554583 2
0.29965818 -0.49359417 -0.5478517 2
0.31263328 -0.49917167 -0.5400455 1
0.32946122 -0.50660676 -0.53189176 1
0.5257957 -0.7449953 -1.7947705 1
0.51625836 -0.73807466 -1.7739809 1
0.5066569 -0.73114127 -1.753376 1
0.49996364 -0.7259013 -1.7351205 1
0.4917307 -0.71979785 -1.7159364 1
0.4812007 -0.71240145 -1.695324 1
0.4706031 -0.70499176 -1.6749063 1
0.45543635 -0.6950012 -1.6515596 1
0.4371724 -0.68328 -1.6264074 1
0.41880524 -0.6715385 -1.6015527 1
0.404868 -0.66235036 -1.5800271 1
0.39387834 -0.65486336 -1.5607378 1
0.38282096 -0.64736307 -1.5416435 1
0.37017393 -0.6389893 -1.5217644 1
0.35668945 -0.63017046 -1.501616 1
0.3446555 -0.6221976 -1.4826524 2
0.33331645 -0.61464185 -1.4643686 2
0.32651806 -0.6096612 -1.4490957 2
0.32044315 -0.60510325 -1.4344206 2
0.3150971 -0.60096896 -1.4203274 2
0.31048524 -0.5972595 -1.4068012 2
0.30506253 -0.59311014 -1.3929288 2
0.3011546 -0.5898194 -1.3800566 2
0.2979933 -0.5869559 -1.3677151 2
0.29402292 -0.58365285 -1.3550225 2
0.29080284 -0.58077776 -1.3428504 2
0.28755414 -0.5778971 -1.3307605 2
0.2850629 -0.57544565 -1.3191706 2
0.28175902 -0.57255405 -1.3072397 2
0.27921605 -0.57009244 -1.2957985 2
0.27585697 -0.56718993 -1.2840266 2
0.27326226 -0.5647182 -1.2727342 2
0.27064276 -0.5622415 -1.2615137 2
0.26879478 -0.56019694 -1.2507522 2
0.26692533 -0.55814815 -1.2400523 2
0.26503468 -0.5560952 -1.229414 2
0.26392448 -0.5544761 -1.2192091 2
0.2619927 -0.552415 -1.2086887 2
0.26084507 -0.5507885 -1.1985915 2
0.25967956 -0.5491586 -1.1885457 2
0.25930536 -0.5479646 -1.1789024 2
0.258106 -0.5463279 -1.168954 2
0.25688887 -0.5446877 -1.1590569 2
0.2564683 -0.5434846 -1.1495471 2
0.25603354 -0.54227865 -1.1400782 2
0.25558436 -0.54106987 -1.1306504 2
0.2551211 -0.53985834 -1.1212637 2
0.25382197 -0.538202 -1.1116025 2
0.25332832 -0.5369845 -1.1023029 2
0.25199533 -0.5353215 -1.0927392 2
0.2514714 -0.53409797 -1.0835268 2
0.25010455 -0.5324283 -1.0740606 2
0.24871993 -0.5307551 -1.0646455 2
0.24731743 -0.5290784 -1.0552819 2
0.24506319 -0.5269538 -1.04569 2
0.24195182 -0.52438015 -1.0358851 2
0.23881543 -0.52180165 -1.0261521 2
0.23565412 -0.5192182 -1.0164908 2
0.23330891 -0.51707566 -1.0071604 2
0.23009956 -0.51448274 -0.99763775 2
0.22686517 -0.51188487 -0.98818684 2
0.22445226 -0.50972897 -0.97905135 2
0.22032154 -0.5066744 -0.9695004 2
0.21786237 -0.5045094 -0.96049833 2
0.21452999 -0.50189227 -0.95132947 2
0.21202624 -0.49971843 -0.94245565 2
0.20950115 -0.4975404 -0.93364334 2
0.20609748 -0.49490923 -0.9246797 2
0.20352781 -0.4927224 -0.9159956 2
0.20093668 -0.49053138 -0.90737313 2
0.1991868 -0.48878622 -0.89900964 2
0.19655478 -0.48658717 -0.8905051 2
0.19476736 -0.4848346 -0.88224936 2
0.19209433 -0.48262745 -0.8738628 2
0.18939984 -0.48041606 -0.86553776 2
0.18755555 -0.47865224 -0.85744613 2
0.18656647 -0.47733712 -0.84957254 2
0.18468821 -0.47556663 -0.84157836 2
0.18366885 -0.4742455 -0.833792 2
0.1826353 -0.47292155 -0.8260466 2
0.18158746 -0.4715948 -0.8183423 2
0.18140745 -0.47071916 -0.8108201 2
0.18121672 -0.46984142 -0.80332863 2
0.18190098 -0.46941614 -0.7959988 2
0.1816907 -0.46853447 -0.7885638 2
0.18235898 -0.46810603 -0.78128004 2
0.18212903 -0.4672206 -0.77390146 2
0.18188846 -0.46633297 -0.76655364 2
0.18253171 -0.46589965 -0.75934184 2
0.18316793 -0.4654649 -0.7521504 2
0.18469512 -0.4654858 -0.7450745 2
0.18531871 -0.4650486 -0.7379191 2
0.18683708 -0.46506774 -0.73086876 2
0.18835175 -0.46508622 -0.72382873 2
0.18986285 -0.46510398 -0.71679896 2
0.19227743 -0.4655798 -0.7098487 2
0.19378316 -0.46559656 -0.70283437 2
0.1971066 -0.46653157 -0.69594824 2
0.1995213 -0.46700746 -0.688998 2
0.20193589 -0.46748328 -0.6820477 2
0.20526648 -0.46841973 -0.6751411 2
0.20768285 -0.46889597 -0.6681858 2
0.21101868 -0.46983343 -0.6612637 2
0.21435821 -0.47077167 -0.6543315 2
0.2177012 -0.4717105 -0.64738894 2
0.2219727 -0.47311246 -0.6404541 2
0.22532463 -0.47405314 -0.633486 2
0.22960854 -0.4754575 -0.62651527 2
0.2338996 -0.47686332 -0.619524 2
0.2381978 -0.47827053 -0.61251223 2
0.24343693 -0.4801432 -0.60547227 2
0.24962223 -0.4824825 -0.59838873 2
0.25488448 -0.48435974 -0.5912821 2
0.26109648 -0.48670423 -0.5841217 2
0.26638198 -0.48858607 -0.5769483 2
0.27356339 -0.49140167 -0.5696776 2
0.28170717 -0.49468696 -0.5623172 2
0.29081857 -0.49844307 -0.55485153 2
0.30185103 -0.5031379 -0.5472167 1
0.31481504 -0.50877345 -0.53938186 1
0.33447957 -0.51769 -0.5310214 1
0.52721083 -0.75745326 -1.7844195 1
0.51767755 -0.7504347 -1.7637172 1
0.5065975 -0.74254024 -1.7421176 1
0.4954462 -0.7346318 -1.7207232 1
0.487203 -0.72843856 -1.7016563 1
0.47591627 -0.72050333 -1.6806519 1
0.46380985 -0.71212107 -1.6593323 1
0.44562697 -0.70025694 -1.6341059 1
0.42658877 -0.6879387 -1.6086671 1
0.41121256 -0.6777698 -1.586061 1
0.40028036 -0.67019004 -1.5667105 1
0.3900379 -0.6630317 -1.5480494 1
0.37821293 -0.65499043 -1.5285939 1
0.36555588 -0.64649963 -1.5088592 1
0.35206127 -0.6375582 -1.4888604 1
0.33848834 -0.62860143 -1.4690875 2
0.32866812 -0.62181187 -1.4518855 2
0.32262743 -0.6171949 -1.4371777 2
0.31654394 -0.61256945 -1.422593 2
0.3111893 -0.6083732 -1.4085851 2
0.30656874 -0.60460716 -1.3951385 2
0.30113745 -0.60039586 -1.3813512 2
0.2979977 -0.59749275 -1.3689916 2
0.2940508 -0.594145 -1.3562809 2
0.2908523 -0.59123033 -1.3440906 2
0.2876253 -0.58831 -1.3319823 2
0.28515387 -0.5858242 -1.3203739 2
0.28187156 -0.58289295 -1.3084246 2
0.27934837 -0.58039695 -1.2969649 2
0.27601087 -0.5774548 -1.2851746 2
0.27343607 -0.5749486 -1.2738638 2
0.27083635 -0.57243747 -1.2626246 2
0.26900637 -0.5703636 -1.2518444 2
0.26715493 -0.56828547 -1.2411256 2
0.26528215 -0.5662031 -1.2304684 2
0.26418817 -0.5645598 -1.2202444 2
0.26227438 -0.5624694 -1.2097051 2
0.26194668 -0.56126267 -1.1999502 2
0.26079917 -0.55960876 -1.1898801 2
0.26044106 -0.55839604 -1.1802123 2
0.2592597 -0.5567355 -1.1702397 2
0.25887132 -0.55551684 -1.1606591 2
0.25846863 -0.5542953 -1.1511195 2
0.25723743 -0.55262494 -1.1412904 2
0.25680447 -0.55139744 -1.1318381 2
0.2563573 -0.55016714 -1.1224269 2
0.25589585 -0.54893404 -1.1130567 2
0.2554201 -0.54769814 -1.1037275 2
0.25410688 -0.5460116 -1.0941343 2
0.25360084 -0.5447697 -1.0848923 2
0.25225377 -0.5430765 -1.0753967 2
0.25088894 -0.5413798 -1.0659523 2
0.24950624 -0.53967965 -1.0565592 2
0.24727345 -0.53752637 -1.0469382 2
0.24418545 -0.53491896 -1.0371044 2
0.24107242 -0.5323067 -1.0273426 2
0.23793447 -0.5296895 -1.0176525 2
0.23477161 -0.52706736 -1.0080342 2
0.23242486 -0.5248916 -0.9987415 2
0.22921383 -0.52226 -0.98926175 2
0.2259779 -0.5196235 -0.97985375 2
0.22271693 -0.516982 -0.97051764 2
0.21943116 -0.5143357 -0.96125335 2
0.21612036 -0.5116844 -0.9520608 2
0.2136364 -0.5094816 -0.94316304 2
0.21027744 -0.50682086 -0.934109 2
0.20774889 -0.5046093 -0.92533934 2
0.205199 -0.5023935 -0.91663134 2
0.20176888 -0.49971873 -0.9077825 2
0.2000351 -0.4979493 -0.8993999 2
0.19742095 -0.49572092 -0.89087653 2
0.1947856 -0.49348825 -0.8824147 2
0.19299471 -0.49170762 -0.8741962 2
0.19031835 -0.4894669 -0.86585236 2
0.18849015 -0.4876789 -0.8577416 2
0.18664408 -0.4858874 -0.84968215 2
0.18478024 -0.48409235 -0.84167403 2
0.1837734 -0.4827518 -0.83387333 2
0.18275249 -0.48140842 -0.8261137 2
0.18259573 -0.48052084 -0.818541 2
0.181548 -0.47917223 -0.8108583 2
0.18225014 -0.47873956 -0.803488 2
0.18206131 -0.47784567 -0.79600763 2
0.18274736 -0.47740984 -0.7886834 2
0.18253899 -0.47651213 -0.78125954 2
0.18231988 -0.47561234 -0.77386636 2
0.18298101 -0.47517157 -0.7666141 2
0.18274236 -0.47426784 -0.75927734 2
0.18428195 -0.47428578 -0.7521709 2
0.18492174 -0.47384077 -0.7449801 2
0.18645251 -0.47385693 -0.7378993 2
0.18707979 -0.4734094 -0.7307444 2
0.18860161 -0.47342384 -0.72368926 2
0.19011998 -0.4734375 -0.7166444 2
0.19253993 -0.47391444 -0.70967877 2
0.19495988 -0.47439134 -0.70271313 2
0.19737983 -0.47486824 -0.6957475 2
0.19979978 -0.4753452 -0.6887819 2
0.20313203 -0.47628742 -0.68186474 2
0.20555377 -0.47676474 -0.6748939 2
0.2079755 -0.477242 -0.66792315 2
0.21223271 -0.47865206 -0.66101855 2
0.21557748 -0.4795968 -0.65406555 2
0.21892583 -0.48054224 -0.6471022 2
0.22227776 -0.48148835 -0.6401286 2
0.22563314 -0.48243517 -0.63314474 2
0.22991884 -0.4838509 -0.62615806 2
0.23421156 -0.485268 -0.61915094 2
0.23851156 -0.48668647 -0.6121232 2
0.24375057 -0.48857558 -0.6050671 2
0.24993396 -0.4909364 -0.597967 2
0.2551962 -0.4928301 -0.59084415 2
0.2614063 -0.49519616 -0.58366716 2
0.2676307 -0.49756497 -0.5764492 2
0.2748103 -0.50040764 -0.5691565 2
0.2829504 -0.5037251 -0.5617739 2
0.2920562 -0.5075185 -0.55428576 1
0.30307937 -0.5122608 -0.54662794 1
0.3169787 -0.5184265 -0.5387155 1
0.34136844 -0.52980065 -0.5300281 1
0.5351472 -0.77529263 -1.7926438 1
0.5241996 -0.7673147 -1.7707727 1
0.5117017 -0.75844914 -1.7480257 1
0.4991256 -0.74956816 -1.7255044 1
0.4924152 -0.7441714 -1.7074516 1
0.48193097 -0.7365758 -1.6869161 1
0.4691391 -0.72765225 -1.6650155 1
0.4532752 -0.7169593 -1.6412807 1
0.43431818 -0.70449257 -1.6157733 1
0.4175099 -0.6933225 -1.5920877 1
0.40512788 -0.68477076 -1.5716765 1
0.39569306 -0.677964 -1.5534587 1
0.38544035 -0.670705 -1.5349257 1
0.37208712 -0.6616709 -1.5146408 1
0.36017728 -0.6535033 -1.4955397 1
0.34667087 -0.644439 -1.4756958 1
0.33232164 -0.63491756 -1.455609 2
0.3247863 -0.6293582 -1.4399309 2
0.31873703 -0.6246737 -1.4253137 2
0.3134147 -0.6204236 -1.411273 2
0.30805326 -0.6161657 -1.3973451 2
0.3026526 -0.61190015 -1.3835299 2
0.29798782 -0.6080706 -1.3702657 2
0.29484117 -0.60512227 -1.35797 2
0.29088736 -0.6017239 -1.3453285 2
0.28768194 -0.598764 -1.3332019 2
0.28523028 -0.5962437 -1.3215749 2
0.28196967 -0.59327286 -1.3096073 2
0.27946627 -0.59074235 -1.2981291 2
0.27615035 -0.5877607 -1.2863204 2
0.27359533 -0.58522004 -1.274991 2
0.2710154 -0.5826744 -1.2637334 2
0.26920342 -0.5805712 -1.2529342 2
0.26737 -0.57846373 -1.2421966 2
0.26631176 -0.57680005 -1.231897 2
0.26523566 -0.57513285 -1.2216487 2
0.2641418 -0.5734622 -1.2114518 2
0.26303005 -0.57178795 -1.2013061 2
0.26190054 -0.57011026 -1.1912117 2
0.26155865 -0.56887877 -1.1815194 2
0.26120245 -0.5676445 -1.1718681 2
0.260023 -0.56595695 -1.1619173 2
0.26044726 -0.5651675 -1.1526887 2
0.26004827 -0.5639248 -1.1431606 2
0.2596351 -0.56267923 -1.1336734 2
0.2592076 -0.56143093 -1.1242274 2
0.25876582 -0.56017977 -1.1148224 2
0.25830984 -0.5589258 -1.1054584 2
0.2570182 -0.55721617 -1.0958307 2
0.2557087 -0.55550295 -1.0862544 2
0.25520635 -0.55423987 -1.0770237 2
0.25386298 -0.55252004 -1.0675448 2
0.25167322 -0.5503423 -1.0578332 2
0.24946201 -0.54816043 -1.048183 2
0.24722946 -0.5459743 -1.0385944 2
0.24414158 -0.54332864 -1.0287986 2
0.24102879 -0.54067796 -1.0190744 2
0.23789108 -0.53802246 -1.0094223 2
0.23472846 -0.535362 -0.9998419 2
0.2315408 -0.53269666 -0.9903333 2
0.22832823 -0.5300263 -0.9808966 2
0.22424603 -0.5268937 -0.97129357 2
0.22098172 -0.5242132 -0.9620056 2
0.21854067 -0.521986 -0.9530171 2
0.21522832 -0.51929605 -0.94386756 2
0.2127428 -0.51706004 -0.93500733 2
0.20852876 -0.5139014 -0.925784 2
0.20599687 -0.5116563 -0.91705704 2
0.20344353 -0.509407 -0.9083917 2
0.20086884 -0.5071534 -0.8997879 2
0.19827282 -0.5048956 -0.89124566 2
0.19565535 -0.50263363 -0.882765 2
0.19301653 -0.50036746 -0.8743459 2
0.19122231 -0.49855876 -0.8661647 2
0.18941021 -0.49674654 -0.85803485 2
0.18758035 -0.4949308 -0.8499563 2
0.18573272 -0.49311155 -0.84192896 2
0.1847403 -0.4917519 -0.8341089 2
0.1837337 -0.4903894 -0.8263298 2
0.1827128 -0.48902416 -0.81859183 2
0.18255615 -0.4881202 -0.8110354 2
0.18238878 -0.48721415 -0.8035097 2
0.18221068 -0.486306 -0.79601485 2
0.1829058 -0.48586094 -0.78867584 2
0.18359375 -0.4854145 -0.78135735 2
0.18338716 -0.4845007 -0.7739445 2
0.18316996 -0.48358482 -0.76656246 2
0.18383288 -0.48313344 -0.7593158 2
0.18448877 -0.48268068 -0.7520896 2
0.18513763 -0.48222643 -0.74488395 2
0.18667543 -0.48223853 -0.7377881 2
0.18820977 -0.48224992 -0.73070246 2
0.18974066 -0.48226058 -0.7236271 2
0.19126785 -0.48227054 -0.716562 2
0.19369495 -0.48274887 -0.70957583 2
0.19521677 -0.48275775 -0.7025261 2
0.19854903 -0.48370552 -0.69560355 2
0.20097613 -0.48418385 -0.68861735 2
0.20340323 -0.48466212 -0.6816312 2
0.20674264 -0.48561132 -0.67468816 2
0.20917153 -0.48609 -0.66769683 2
0.21251631 -0.48704016 -0.6607384 2
0.21586454 -0.4879911 -0.6537696 2
0.21921647 -0.48894268 -0.6467907 2
0.22257185 -0.489895 -0.6398014 2
0.22685397 -0.4913209 -0.63281417 2
0.23114312 -0.49274826 -0.62580645 2
0.23543942 -0.49417704 -0.61877817 2
0.23974288 -0.4956072 -0.6117294 2
0.24498355 -0.49751312 -0.6046519 2
0.25023496 -0.49942106 -0.5975436 2
0.25549698 -0.50133115 -0.5904045 2
0.26170528 -0.5037188 -0.58321106 2
0.2688651 -0.50658494 -0.5759479 2
0.2760427 -0.5094546 -0.56863326 2
0.28417897 -0.5128042 -0.5612284 2
0.2932793 -0.5166348 -0.55371785 1
0.30523777 -0.52190185 -0.5459877 1
0.31817806 -0.52765334 -0.5381006 1
0.53862095 -0.7906489 -1.7975554 1
0.52478385 -0.7808058 -1.7734568 1
0.5138118 -0.7727135 -1.7517657 1
0.50276864 -0.764607 -1.7302799 1
0.497584 -0.7600272 -1.7132399 1
0.4864124 -0.7518955 -1.6921234 1
0.47368002 -0.7428632 -1.6701725 1
0.45788288 -0.7320408 -1.6463883 1
0.43899965 -0.71942425 -1.6208329 1
0.42150974 -0.70767534 -1.5965939 1
0.40918362 -0.69901955 -1.5761373 1
0.40130484 -0.6930193 -1.5588613 1
0.391106 -0.6856723 -1.5402718 1
0.3785714 -0.6769754 -1.5204153 1
0.3659618 -0.6682638 -1.5007744 1
0.35327744 -0.6595374 -1.4813488 1
0.33823037 -0.6494559 -1.4607329 1
0.3269198 -0.6415933 -1.4426804 2
0.32090473 -0.63684976 -1.4280305 2
0.31484687 -0.6320979 -1.4135039 2
0.30951595 -0.6277858 -1.3995482 2
0.30491745 -0.6239145 -1.3861482 2
0.29950988 -0.61958724 -1.3724132 2
0.2956134 -0.6161508 -1.3596562 2
0.29168487 -0.61270803 -1.3469915 2
0.2892815 -0.61015886 -1.335264 2
0.28607273 -0.6071545 -1.3231909 2
0.28283548 -0.60414445 -1.3111999 2
0.28035367 -0.60157984 -1.2996979 2
0.27784693 -0.5990103 -1.2882679 2
0.2745278 -0.59598416 -1.2765129 2
0.27196932 -0.5934044 -1.2652314 2
0.27017713 -0.5912722 -1.2544082 2
0.26836348 -0.58913577 -1.2436466 2
0.26732326 -0.58744824 -1.2333229 2
0.26626515 -0.5857572 -1.2230504 2
0.26518917 -0.58406264 -1.2128291 2
0.26409543 -0.58236456 -1.2026591 2
0.26378572 -0.5811175 -1.1928961 2
0.2634617 -0.5798676 -1.1831741 2
0.2631234 -0.57861495 -1.1734934 2
0.2627709 -0.57735944 -1.1638534 2
0.26240408 -0.5761012 -1.1542546 2
0.2620231 -0.57484007 -1.1446967 2
0.26244032 -0.5740328 -1.135505 2
0.2620325 -0.5727664 -1.126024 2
0.2616105 -0.57149726 -1.1165842 2
0.26035643 -0.5697676 -1.1068759 2
0.25908446 -0.5680344 -1.0972189 2
0.2586161 -0.56675607 -1.0879124 2
0.25731027 -0.5650162 -1.0783528 2
0.2559867 -0.56327283 -1.0688446 2
0.25464523 -0.56152594 -1.0593876 2
0.25245738 -0.55931574 -1.0497031 2
0.2510785 -0.5575615 -1.040354 2
0.24801755 -0.55488276 -1.030519 2
0.24576557 -0.5526599 -1.0210192 2
0.24265659 -0.5499717 -1.0113229 2
0.23868513 -0.546817 -1.0014452 2
0.23468518 -0.54365665 -0.9916495 2
0.23065674 -0.5404907 -0.981936 2
0.22744262 -0.5377817 -0.97254217 2
0.22335887 -0.5346049 -0.96298766 2
0.22009301 -0.53188574 -0.9537426 2
0.21765041 -0.52962536 -0.9447917 2
0.2143364 -0.5268967 -0.93568516 2
