ply
format ascii 1.0
comment v20 pointcloud — conf>=1, radius=1.7m, n=9479
element vertex 1360
property float x
property float y
property float z
property uchar confidence
end_header
0.28049326 -0.63095266 -1.1453226 2
0.28018022 -0.62959194 -1.135648 2
0.279853 -0.6282284 -1.1260146 2
0.27951145 -0.62686217 -1.1164222 2
0.27915573 -0.62549317 -1.1068709 2
0.27878582 -0.62412137 -1.0973606 2
0.27758622 -0.62226415 -1.0875996 2
0.27718604 -0.62088656 -1.0781765 2
0.27595258 -0.61902285 -1.068513 2
0.27470136 -0.6171556 -1.0589008 2
0.27343225 -0.615285 -1.04934 2
0.2721455 -0.6134109 -1.0398304 2
0.27001476 -0.61104864 -1.0301112 2
0.2686906 -0.60916734 -1.0207094 2
0.26651895 -0.60679716 -1.0111082 2
0.26432598 -0.6044228 -1.0015686 2
0.2612784 -0.6015582 -0.99185 2
0.25653577 -0.5977158 -0.9817327 2
0.25092435 -0.5933804 -0.97147757 2
0.24443877 -0.5885509 -0.9611 2
0.23875451 -0.58420134 -0.9510553 2
0.2338767 -0.5803328 -0.9413279 2
0.22896695 -0.57645816 -0.93169296 2
0.2248708 -0.57306576 -0.9223548 2
0.22074628 -0.56966794 -0.9130988 2
0.21744263 -0.5667538 -0.90411925 2
0.21411395 -0.5638349 -0.89521146 2
0.21076047 -0.5609112 -0.8863754 2
0.20738208 -0.55798256 -0.8776114 2
0.20483518 -0.55553985 -0.8690928 2
0.20140874 -0.55260205 -0.86046726 2
0.1979574 -0.5496594 -0.8519135 2
0.19620454 -0.5476952 -0.84374833 2
0.1935705 -0.54523563 -0.83548117 2
0.19178033 -0.54326427 -0.82742375 2
0.1899724 -0.54128945 -0.8194176 2
0.18901563 -0.53980416 -0.8116006 2
0.18804443 -0.5383162 -0.8038246 2
0.18793154 -0.5373192 -0.79621726 2
0.18780792 -0.5363201 -0.78864074 2
0.18767369 -0.535319 -0.78109497 2
0.18840647 -0.53481054 -0.77369213 2
0.18825257 -0.5338056 -0.7662028 2
0.18896937 -0.533294 -0.75884616 2
0.18967903 -0.5327811 -0.7515101 2
0.19126642 -0.53276294 -0.74428606 2
0.19373691 -0.5332405 -0.73715895 2
0.19531894 -0.5332213 -0.72995037 2
0.19689739 -0.5332014 -0.7227521 2
0.1993643 -0.53367835 -0.7156352 2
0.20093751 -0.5336574 -0.7084523 2
0.20340264 -0.534134 -0.7013405 2
0.20586765 -0.5346105 -0.6942287 2
0.2074337 -0.5345882 -0.6870663 2
0.20989704 -0.5350644 -0.6799597 2
0.21236038 -0.53554064 -0.67285305 2
0.21482372 -0.5360169 -0.66574645 2
0.2181933 -0.5369933 -0.6586698 2
0.22156644 -0.5379705 -0.651583 2
0.22494304 -0.5389483 -0.64448595 2
0.2292347 -0.5404281 -0.63739324 2
0.23353362 -0.54190934 -0.63028 2
0.23783958 -0.5433919 -0.6231463 2
0.24215257 -0.5448758 -0.615992 2
0.24831009 -0.54736644 -0.60880554 2
0.2544818 -0.54985976 -0.60157806 2
0.2625121 -0.5533626 -0.5942772 2
0.27056372 -0.55686957 -0.58691484 2
0.2786367 -0.5603806 -0.57949084 2
0.28765857 -0.56440014 -0.57197386 1
0.2994932 -0.56993866 -0.56427515 1
0.31043243 -0.574979 -0.55651546 1
0.55429995 -0.8739889 -1.7925665 1
0.5494268 -0.8690805 -1.7749581 1
0.54158366 -0.86227554 -1.7553627 1
0.53808534 -0.85829395 -1.7390661 1
0.5360224 -0.8552509 -1.7239063 1
0.53982854 -0.85598665 -1.7129257 1
0.5421568 -0.85577565 -1.7009311 1
0.54003334 -0.8527209 -1.6859457 1
0.53639627 -0.8487124 -1.6700492 1
0.5327238 -0.84469706 -1.6542552 1
0.52901566 -0.8406748 -1.6385639 1
0.52975917 -0.8394964 -1.6258631 1
0.5349864 -0.84116805 -1.6160606 1
0.35381496 -0.7162375 -1.4209479 1
0.34331286 -0.70825756 -1.4037457 1
0.32968402 -0.69835097 -1.3850081 1
0.31597698 -0.6884293 -1.3664963 1
0.30911458 -0.68280566 -1.3519882 2
0.3060609 -0.67957103 -1.3396865 2
0.30220604 -0.6758509 -1.3270575 2
0.29986823 -0.6730853 -1.3153296 2
0.2990582 -0.671276 -1.3044717 2
0.2982304 -0.6694633 -1.2936654 2
0.295825 -0.66668445 -1.2821325 2
0.294958 -0.6648642 -1.2714391 2
0.2932899 -0.66255844 -1.2604182 2
0.29238558 -0.66073096 -1.2498324 2
0.2914635 -0.6589 -1.2392981 2
0.28973484 -0.6565826 -1.2284517 2
0.28877532 -0.65474445 -1.218025 2
0.28779817 -0.65290284 -1.2076497 2
0.28680313 -0.65105784 -1.1973257 2
0.28658628 -0.6496937 -1.1873958 2
0.2855574 -0.64784217 -1.1771692 2
0.28531027 -0.6464723 -1.1673265 2
0.28504896 -0.6450996 -1.1575248 2
0.28477335 -0.64372414 -1.1477642 2
0.28448355 -0.6423459 -1.1380447 2
0.28417945 -0.64096504 -1.1283662 2
0.28386116 -0.6395814 -1.1187289 2
0.2835287 -0.6381949 -1.1091324 2
0.2823701 -0.63631827 -1.0992805 2
0.2811936 -0.6344381 -1.0894798 2
0.2808149 -0.63304275 -1.0800169 2
0.28042185 -0.63164467 -1.0705949 2
0.27919567 -0.6297549 -1.0609379 2
0.2779516 -0.62786174 -1.0513322 2
0.2766899 -0.6259651 -1.0417778 2
0.2754103 -0.6240651 -1.0322748 2
0.27411294 -0.62216157 -1.0228231 2
0.2719698 -0.61976403 -1.0131723 2
0.26980543 -0.6173624 -1.003583 2
0.26761973 -0.6149566 -0.9940553 2
0.2645793 -0.61205506 -0.98435414 2
0.25984406 -0.6081648 -0.974265 2
0.2534032 -0.6032837 -0.96381867 2
0.24608457 -0.5979025 -0.95326567 2
0.24040401 -0.59349895 -0.9432647 2
0.2346878 -0.58908844 -0.9333664 2
0.22977996 -0.58516484 -0.923775 2
0.22568583 -0.58172905 -0.9144751 2
0.2224108 -0.57878214 -0.9054513 2
0.21911073 -0.57583046 -0.8964993 2
0.21493483 -0.5723788 -0.8874353 2
0.21158326 -0.5694171 -0.8786322 2
0.20820677 -0.56645066 -0.86990076 2
0.20394897 -0.5629832 -0.8610729 2
0.20052087 -0.56000674 -0.85249037 2
0.19792783 -0.55752224 -0.84413767 2
0.19531345 -0.55503356 -0.8358466 2
0.19354117 -0.55303824 -0.82776487 2
0.19175112 -0.5510395 -0.8197345 2
0.18994331 -0.5490374 -0.81175536 2
0.18898654 -0.54753023 -0.80396 2
0.18888617 -0.5465192 -0.796333 2
0.18877506 -0.5455061 -0.7887367 2
0.18865323 -0.544491 -0.78117126 2
0.18852079 -0.5434738 -0.77363664 2
0.18925548 -0.5429547 -0.7662395 2
0.18998289 -0.5424343 -0.75886285 2
0.19070327 -0.5419125 -0.7515068 2
0.19318259 -0.5423918 -0.744354 2
0.19477713 -0.5423695 -0.7371149 2
0.1963681 -0.54234654 -0.7298862 2
0.19884396 -0.54282516 -0.7227436 2
0.20042956 -0.54280114 -0.71553016 2
0.20290351 -0.5432794 -0.70839274 2
0.20448387 -0.5432544 -0.70119476 2
0.20695615 -0.54373235 -0.6940624 2
0.20942831 -0.54421026 -0.6869301 2
0.21190059 -0.5446882 -0.6797978 2
0.21437275 -0.54516613 -0.67266554 2
0.21774769 -0.54614913 -0.6655682 2
0.22022164 -0.5466274 -0.6584307 2
0.22360182 -0.5476114 -0.6513179 2
0.22698557 -0.54859614 -0.6441949 2
0.23128259 -0.5500879 -0.637076 2
0.23558676 -0.551581 -0.6299366 2
0.23989797 -0.5530756 -0.6227766 2
0.24421632 -0.5545715 -0.6155961 2
0.2503755 -0.5570844 -0.6083829 2
0.2574675 -0.56010807 -0.6011173 2
0.26549768 -0.5636437 -0.59378403 2
0.2735492 -0.5671835 -0.5863892 2
0.28254604 -0.5712365 -0.5789062 2
0.29249346 -0.5758039 -0.5713194 1
0.30339682 -0.5808866 -0.5636137 1
0.5557116 -0.8869038 -1.7818024 1
0.54500175 -0.8781131 -1.760031 1
0.54007566 -0.8731286 -1.7426414 1
0.53804123 -0.87004715 -1.727443 1
0.54186165 -0.8707858 -1.7164211 1
0.5427333 -0.86961025 -1.7033727 1
0.5435908 -0.86843187 -1.6903651 1
0.541471 -0.865334 -1.6754129 1
0.53932285 -0.8622306 -1.6605427 1
0.5371462 -0.85912174 -1.6457548 1
0.53792536 -0.85792834 -1.632973 1
0.5431775 -0.85961574 -1.6230879 1
0.5544337 -0.86515194 -1.6169485 1
0.33500683 -0.7115117 -1.378316 1
0.31901038 -0.7000189 -1.358629 1
0.31292462 -0.69481015 -1.344585 2
0.31142187 -0.69250363 -1.3331194 2
0.30757964 -0.68873674 -1.3205031 2
0.30525446 -0.6859351 -1.3087771 2
0.30368066 -0.6836148 -1.2975168 2
0.3028636 -0.68177676 -1.2867067 2
0.3012489 -0.67944854 -1.2755643 2
0.30039454 -0.6776033 -1.2648621 2
0.29873896 -0.67526716 -1.2538377 2
0.29706192 -0.6729269 -1.242875 2
0.29536366 -0.6705825 -1.2319738 2
0.29443276 -0.6687225 -1.221492 2
0.2934841 -0.66685903 -1.2110617 2
0.29331005 -0.6654813 -1.2010303 2
0.29232752 -0.66361135 -1.1906974 2
0.29132736 -0.66173786 -1.1804159 2
0.2903093 -0.659861 -1.1701856 2
0.29007292 -0.6584713 -1.1603338 2
0.28902102 -0.6565879 -1.150201 2
0.28875446 -0.65519226 -1.1404364 2
0.2884736 -0.65379393 -1.1307127 2
0.28817856 -0.65239286 -1.1210303 2
0.28786922 -0.650989 -1.1113889 2
0.28673553 -0.64908975 -1.1014922 2
0.28639603 -0.6476801 -1.0919379 2
0.28604233 -0.6462676 -1.0824246 2
0.28567433 -0.64485246 -1.0729526 2
0.28447485 -0.6429405 -1.0632458 2
0.28407657 -0.6415195 -1.0538608 2
0.28284335 -0.639601 -1.0442514 2
0.2824149 -0.6381741 -1.0349537 2
0.2803235 -0.63575375 -1.0251865 2
0.279037 -0.63382494 -1.0157311 2
0.2769047 -0.63139665 -1.0060819 2
0.27392137 -0.6284678 -0.99625444 2
0.27174473 -0.6260309 -0.98673356 2
0.26954663 -0.62358993 -0.97727424 2
0.26482213 -0.61965245 -0.967203 2
0.25671864 -0.61371773 -0.95634675 2
0.24940729 -0.60827214 -0.9458381 2
0.2428937 -0.6033168 -0.9356617 2
0.23802519 -0.59935147 -0.9260061 2
0.23396862 -0.59587914 -0.91664165 2
0.22903788 -0.5919018 -0.90716565 2
0.22492254 -0.5884181 -0.8979706 2
0.22077882 -0.58492893 -0.8888576 2
0.21660662 -0.58143425 -0.8798268 2
0.21240592 -0.5779341 -0.870878 2
0.20817673 -0.5744284 -0.8620113 2
0.20391917 -0.5709172 -0.8532267 2
0.20049131 -0.5679024 -0.84468204 2
0.19703841 -0.5648828 -0.8362092 2
0.19442236 -0.562361 -0.8279557 2
0.19264841 -0.56033796 -0.8199062 2
0.19172204 -0.5588148 -0.8120452 2
0.19078124 -0.55728894 -0.8042253 2
0.18982637 -0.55576026 -0.7964465 2
0.18972778 -0.55473316 -0.7888306 2
0.18961847 -0.553704 -0.7812454 2
0.18949854 -0.5526728 -0.77369106 2
0.19024384 -0.5521448 -0.766274 2
0.1909821 -0.55161554 -0.7588774 2
0.19259262 -0.5515909 -0.7515976 2
0.19419968 -0.5515655 -0.744328 2
0.19580305 -0.5515395 -0.7370687 2
0.19740295 -0.5515128 -0.72981966 2
0.19988585 -0.5519928 -0.72265655 2
0.20148039 -0.55196506 -0.715423 2
0.20396149 -0.5524447 -0.708265 2
0.2064426 -0.5529244 -0.701107 2
0.20892382 -0.55340403 -0.69394904 2
0.21140492 -0.5538837 -0.6867911 2
0.21388602 -0.55436337 -0.67963314 2
0.21636713 -0.554843 -0.6724752 2
0.21884835 -0.55532265 -0.66531724 2
0.22223198 -0.5563128 -0.65818876 2
0.22561932 -0.55730367 -0.65105003 2
0.22991621 -0.55880636 -0.64392036 2
0.23331237 -0.55979896 -0.636756 2
0.2367121 -0.5607922 -0.62958133 2
0.24102688 -0.5622984 -0.62240034 2
0.24626207 -0.5643185 -0.6151975 2
0.25242293 -0.5668536 -0.6079575 2
0.26043165 -0.57041794 -0.6006533 2
0.2684617 -0.57398635 -0.5932875 2
0.2774334 -0.5780729 -0.5858384 2
0.28735232 -0.5826785 -0.5782905 2
0.2982235 -0.5878043 -0.5706285 1
0.30912673 -0.5929363 -0.56287414 1
0.560493 -0.90390676 -1.7875748 1
0.54984045 -0.89501756 -1.7657473 1
0.54057693 -0.88708 -1.7451687 1
0.54149497 -0.8858915 -1.7320082 1
0.5409316 -0.8837337 -1.717866 1
0.54181755 -0.882539 -1.704798 1
0.5441636 -0.8823096 -1.6927738 1
0.54502463 -0.88111 -1.6797776 1
0.5458716 -0.8799078 -1.6668224 1
0.5452192 -0.8777328 -1.6529367 1
0.54454553 -0.87555367 -1.6391125 1
0.5498189 -0.8772561 -1.6291549 1
0.5595863 -0.8818763 -1.622 1
0.35469615 -0.7353806 -1.3905439 1
0.33343875 -0.7203434 -1.3677754 1
0.32434583 -0.7131218 -1.3519605 1
0.32058024 -0.70932037 -1.3391724 1
0.31832457 -0.7064939 -1.3272841 2
0.31527126 -0.7031717 -1.315069 2
0.31218946 -0.699844 -1.3029361 2
0.30985546 -0.6970024 -1.2912736 2
0.30827475 -0.69464785 -1.2800663 2
0.30745244 -0.69278145 -1.2692986 2
0.30583072 -0.690419 -1.2582092 2
0.30418766 -0.6880525 -1.2471814 2
0.30252326 -0.68568176 -1.2362154 2
0.30162454 -0.6838006 -1.2256683 2
0.30070806 -0.68191594 -1.2151725 2
0.2997737 -0.6800279 -1.2047282 2
0.29882157 -0.67813635 -1.1943352 2
0.29705763 -0.67574644 -1.1836563 2
0.29686403 -0.67434305 -1.173703 2
0.2958585 -0.67244124 -1.1634638 2
0.2948352 -0.670536 -1.153276 2
0.29459536 -0.66912365 -1.1434561 2
0.29434133 -0.6677086 -1.1336772 2
0.2932682 -0.6657937 -1.1236331 2
0.29217732 -0.6638754 -1.1136403 2
0.29187703 -0.6624513 -1.1039948 2
0.29156244 -0.6610246 -1.0943904 2
0.29123366 -0.6595951 -1.0848271 2
0.2908907 -0.65816283 -1.0753047 2
0.29053342 -0.6567278 -1.0658234 2
0.29016197 -0.65529007 -1.0563831 2
0.28977633 -0.6538495 -1.0469841 2
0.28937638 -0.6524062 -1.0376259 2
0.2881397 -0.6504597 -1.0280539 2
0.28606093 -0.6480089 -1.0182832 2
0.2839607 -0.64555395 -1.0085741 2
0.28183925 -0.6430949 -0.99892664 2
0.27969646 -0.6406318 -0.9893408 2
0.2783637 -0.6386667 -0.9800458 2
0.27534676 -0.63569295 -0.97035366 2
0.270635 -0.63170874 -0.9602952 2
0.2633809 -0.6262085 -0.94968724 2
0.25608408 -0.6207 -0.93920255 2
0.24958503 -0.6156872 -0.9290446 2
0.24388885 -0.6111711 -0.91919804 2
0.23900092 -0.60715276 -0.9096476 2
0.23408103 -0.60312825 -0.9001895 2
0.22912908 -0.5990975 -0.89082384 2
0.22329605 -0.59455496 -0.88137245 2
0.21827829 -0.59051156 -0.87219656 2
0.21322858 -0.58646196 -0.86311305 2
0.20729232 -0.5818994 -0.8539592 2
0.20303309 -0.5783441 -0.84522307 2
0.19960356 -0.5752907 -0.83672136 2
0.19700897 -0.5727402 -0.82843876 2
0.19439304 -0.57018554 -0.8202177 2
0.1926192 -0.5681352 -0.8121953 2
0.19169283 -0.56659013 -0.804356 2
0.19075215 -0.5650423 -0.7965577 2
0.19066608 -0.56400126 -0.78892213 2
0.1905694 -0.56295806 -0.7813173 2
0.190462 -0.56191283 -0.7737432 2
0.19121802 -0.561376 -0.76630616 2
0.19196689 -0.5608378 -0.7588897 2
0.19358635 -0.56080943 -0.7515896 2
0.19520223 -0.56078035 -0.74429977 2
0.19681466 -0.56075054 -0.7370202 2
0.19842339 -0.5607201 -0.729751 2
0.20091343 -0.56120145 -0.7225673 2
0.20340347 -0.5616828 -0.71538377 2
0.20500505 -0.561651 -0.708135 2
0.20838344 -0.5626456 -0.70101655 2
0.20998156 -0.56261307 -0.69377804 2
0.21246982 -0.5630941 -0.68659955 2
0.21495807 -0.5635751 -0.67942107 2
0.2183435 -0.5645711 -0.67228204 2
0.22083354 -0.56505245 -0.6650984 2
0.22422433 -0.56604946 -0.657944 2
0.2276187 -0.5670472 -0.65077937 2
0.23192096 -0.56856185 -0.6436235 2
0.23532426 -0.5695613 -0.6364332 2
0.23963904 -0.57107836 -0.6292413 2
0.24396086 -0.5725969 -0.6220289 2
0.2492013 -0.57463443 -0.61479443 2
0.2553656 -0.57719207 -0.6075225 2
0.2633742 -0.58078927 -0.6001859 2
0.27232087 -0.58490926 -0.5927707 2
0.28221107 -0.5895532 -0.58526164 2
0.29397047 -0.5952414 -0.57761604 1
0.31037605 -0.6035353 -0.569706 1
0.56668055 -0.9220069 -1.794404 1
0.554636 -0.9120453 -1.771457 1
0.5468826 -0.9049949 -1.7518649 1
0.54199266 -0.89988595 -1.7345026 1
0.53998697 -0.8967226 -1.7193086 1
0.54088736 -0.8955088 -1.7062211 1
0.5447148 -0.89624876 -1.695179 1
0.5485424 -0.8969887 -1.6841366 1
0.550892 -0.89674896 -1.672113 1
0.55175316 -0.89552766 -1.6591384 1
0.55260015 -0.8943035 -1.646205 1
0.55938685 -0.89700335 -1.6371155 1
0.5676799 -0.90068847 -1.6289256 1
0.3638245 -0.75129104 -1.3857063 1
0.3433547 -0.73657787 -1.3634634 1
0.3319831 -0.72778714 -1.3464422 1
0.33131218 -0.72592264 -1.3352655 1
0.32908142 -0.7230627 -1.3233434 1
0.32528055 -0.7192052 -1.3107064 1
0.3214475 -0.7153415 -1.298162 1
0.31913507 -0.7124657 -1.2864758 1
0.3175757 -0.7100825 -1.2752392 1
0.31521523 -0.70719737 -1.2636917 2
0.31282985 -0.7043075 -1.2522159 2
0.31198633 -0.70240957 -1.2415369 2
0.31033993 -0.7000095 -1.2305518 2
0.30945897 -0.6981044 -1.2199806 2
0.30856037 -0.69619584 -1.2094607 2
0.3068534 -0.69378406 -1.1986501 2
0.30512512 -0.69136816 -1.187901 2
0.30416954 -0.68944865 -1.1775453 2
0.30240035 -0.6870248 -1.1669145 2
0.3022051 -0.6855992 -1.1569878 2
0.30199552 -0.68417084 -1.1471024 2
0.30097055 -0.68223786 -1.1369467 2
0.29992783 -0.6803015 -1.1268424 2
0.29886734 -0.67836165 -1.1167893 2
0.2977891 -0.67641836 -1.1067877 2
0.2975012 -0.67497486 -1.0971279 2
0.29800928 -0.6740322 -1.0877948 2
0.2976948 -0.6725835 -1.078212 2
0.29736614 -0.67113215 -1.0686703 2
0.2962078 -0.6691734 -1.0588994 2
0.29666603 -0.66822106 -1.0497099 2
0.29629457 -0.66676146 -1.0402913 2
0.2950883 -0.6647934 -1.0306591 2
0.2930416 -0.66231596 -1.0208286 2
0.29097366 -0.6598344 -1.0110596 2
0.28888428 -0.6573487 -1.0013523 2
0.28760147 -0.6553659 -0.9919406 2
0.28630078 -0.6533796 -0.98258036 2
0.28415108 -0.65088224 -0.97304744 2
0.28114665 -0.6478727 -0.9633573 2
0.27728248 -0.64434993 -0.9535253 2
0.27087963 -0.6392955 -0.9431498 2
0.26359904 -0.63372445 -0.9326838 2
0.2579565 -0.629164 -0.9227375 2
0.25143623 -0.62408686 -0.9127006 2
0.24572062 -0.61951226 -0.90296465 2
0.23912394 -0.61442035 -0.8931484 2
0.23248804 -0.6093209 -0.88344514 2
0.2249639 -0.6037027 -0.873682 2
0.21909893 -0.5990993 -0.86437714 2
0.2114929 -0.59346527 -0.8548501 2
0.20640779 -0.5893596 -0.84591794 2
0.202147 -0.5857601 -0.8372302 2
0.1987158 -0.58266807 -0.82877153 2
0.1969794 -0.5805976 -0.82066834 2
0.1943636 -0.5780101 -0.81247985 2
0.19345331 -0.57644624 -0.804616 2
0.19166362 -0.57436544 -0.79666674 2
0.19159007 -0.5733103 -0.7890114 2
0.19150579 -0.5722531 -0.781387 2
0.1914109 -0.5711939 -0.7737932 2
0.19304991 -0.57116383 -0.76644206 2
0.1938113 -0.5706171 -0.7590005 2
0.19456565 -0.57006896 -0.75157934 2
0.19619048 -0.5700361 -0.7442693 2
0.19781172 -0.5700026 -0.7369695 2
0.1994294 -0.56996834 -0.72967994 2
0.20192659 -0.5704511 -0.7224759 2
0.20442367 -0.5709339 -0.7152717 2
0.20692086 -0.5714166 -0.70806754 2
0.20941794 -0.57189935 -0.7008634 2
0.21191514 -0.5723821 -0.6936593 2
0.21441221 -0.5728649 -0.68645513 2
0.21690941 -0.5733476 -0.679251 2
0.22030199 -0.5743505 -0.67208606 2
0.22280085 -0.5748336 -0.6648768 2
0.22619879 -0.5758374 -0.65769655 2
0.22960019 -0.57684195 -0.6505059 2
0.23300529 -0.5778472 -0.64330506 2
0.23731816 -0.5793749 -0.63610756 2
0.24163818 -0.58090395 -0.62888944 2
0.24596524 -0.5824345 -0.6216509 2
0.25211883 -0.5850119 -0.61438805 2
0.25919807 -0.5881153 -0.60707724 2
0.26720834 -0.5917457 -0.599703 2
0.27706993 -0.5964278 -0.59223276 2
0.28696 -0.6011155 -0.5846804 2
0.2987156 -0.6068578 -0.57699096 1
0.55793893 -0.9282109 -1.7761071 1
0.5502323 -0.92108196 -1.756468 1
0.54101217 -0.9129556 -1.7359612 1
0.5404881 -0.9107397 -1.7217708 1
0.5414063 -0.90950733 -1.7086537 1
0.54524446 -0.9102494 -1.6975808 1
0.5505533 -0.91198057 -1.6874988 1
0.5543951 -0.91272324 -1.6764157 1
0.5552813 -0.9114849 -1.6633911 1
0.5591159 -0.91222626 -1.6523283 1
0.5688901 -0.91693527 -1.645066 1
0.35097337 -0.7514533 -1.3577853 1
0.34652627 -0.7470691 -1.344445 1
0.34281254 -0.74317926 -1.3316054 1
0.3398378 -0.73978466 -1.3192511 1
0.33606195 -0.73588276 -1.306591 1
0.33147955 -0.73147243 -1.2936407 1
0.32919037 -0.7285628 -1.2819257 1
0.32765424 -0.7261512 -1.270655 1
0.32531703 -0.7232323 -1.2590785 1
0.322955 -0.7203086 -1.247574 2
0.3221346 -0.7183878 -1.2368553 2
0.32129657 -0.71646357 -1.226188 2
0.31965375 -0.71403134 -1.2152252 2
0.3172009 -0.7110901 -1.2039821 2
0.31472325 -0.708144 -1.1928111 2
0.31301284 -0.7056987 -1.1820433 2
0.31128109 -0.70324934 -1.171337 2
0.31032383 -0.70130205 -1.1610134 2
0.30934882 -0.6993514 -1.1507412 2
0.30835605 -0.69739723 -1.1405203 2
0.3073454 -0.69543964 -1.1303506 2
0.3055141 -0.692971 -1.1199317 2
0.3052709 -0.6915142 -1.1101654 2
0.30501342 -0.69005466 -1.10044 2
0.30554998 -0.6891011 -1.091041 2
0.30526578 -0.6876364 -1.0813926 2
0.3049674 -0.68616897 -1.0717853 2
0.3038411 -0.6841891 -1.0619493 2
0.30351257 -0.6827158 -1.0524292 2
0.30316973 -0.6812397 -1.0429502 2
0.30199373 -0.6792502 -1.0332577 2
0.30079985 -0.6772572 -1.0236166 2
0.29876578 -0.6747493 -1.0137826 2
0.29671037 -0.6722373 -1.0040102 2
0.29545963 -0.6702333 -0.9945333 2
0.29419124 -0.6682259 -0.98510766 2
0.29207528 -0.6657022 -0.97550976 2
0.2899381 -0.6631744 -0.9659734 2
0.2869463 -0.66012895 -0.9562852 2
0.28225982 -0.656051 -0.94625235 2
0.27754128 -0.6519668 -0.9363118 2
0.27195215 -0.64736193 -0.9262656 2
0.2654873 -0.6422353 -0.91612923 2
0.25898325 -0.6371011 -0.90610576 2
0.25075245 -0.63092816 -0.8958299 2
0.24332094 -0.6252622 -0.885865 2
0.23415208 -0.6185555 -0.87567854 2
0.22578251 -0.61235577 -0.8658029 2
0.2173667 -0.6061471 -0.85606074 2
0.21061015 -0.60096407 -0.8467658 2
0.20552337 -0.59680873 -0.83788747 2
0.20126092 -0.59316516 -0.8292482 2
0.19868624 -0.5905528 -0.82097405 2
0.19694996 -0.58845496 -0.8128979 2
0.19519591 -0.58635366 -0.8048731 2
0.19428742 -0.58476824 -0.79702586 2
0.19336474 -0.5831801 -0.78921956 2
0.19242787 -0.5815893 -0.7814543 2
0.19321418 -0.5810364 -0.77395165 2
0.19399345 -0.5804821 -0.7664696 2
0.19476557 -0.57992655 -0.759008 2
0.19640458 -0.57989097 -0.7516623 2
0.1971643 -0.57933295 -0.7442366 2
0.19879448 -0.5792957 -0.73691654 2
0.2013005 -0.57978016 -0.72968674 2
0.20380652 -0.5802646 -0.72245693 2
0.20542955 -0.58022594 -0.71515745 2
0.20793378 -0.5807101 -0.7079328 2
0.21043813 -0.5811942 -0.7007081 2
0.21294236 -0.58167833 -0.6934835 2
0.21544659 -0.58216244 -0.6862588 2
0.21884263 -0.5831714 -0.6790782 2
0.22134876 -0.5836559 -0.6718484 2
0.22475016 -0.58466595 -0.6646524 2
0.2290523 -0.5862025 -0.6574748 2
0.23156369 -0.586688 -0.65022963 2
0.23497581 -0.58770007 -0.64300287 2
0.23929405 -0.5892398 -0.63577914 2
0.24361932 -0.5907808 -0.62853485 2
0.24885786 -0.59285086 -0.62127304 2
0.2550149 -0.59545094 -0.61397827 2
0.26300538 -0.5991103 -0.60662806 2
0.2710173 -0.60277385 -0.5992162 2
0.28179014 -0.6080284 -0.5916903 2
0.28985012 -0.61170125 -0.5841399 1
0.30984926 -0.62226385 -0.576167 1
0.55354583 -0.93727154 -1.7610657 1
0.5443759 -0.92905635 -1.7405126 1
0.5395112 -0.9238209 -1.7232082 1
0.54190373 -0.9235676 -1.7110829 1
0.5457525 -0.9243116 -1.6999793 1
0.5510684 -0.92605513 -1.6898661 1
0.5549209 -0.92679995 -1.678752 1
0.56024754 -0.92854553 -1.668608 1
0.5655812 -0.9302924 -1.6584435 1
0.5798099 -0.938054 -1.6539562 1
0.3700751 -0.7740268 -1.3580437 1
0.3610685 -0.766559 -1.342242 1
0.35585058 -0.7616132 -1.3285682 1
0.35290623 -0.7581807 -1.31617 1
0.3507061 -0.7552499 -1.3042364 1
0.3469323 -0.7512991 -1.29162 1
0.34390247 -0.74785006 -1.279468 1
0.33928835 -0.7433789 -1.2666641 1
0.33697796 -0.74042684 -1.2550485 1
0.33542418 -0.737979 -1.2438617 1
0.33384907 -0.735527 -1.2327363 1
0.33225274 -0.73307085 -1.2216725 2
0.32827425 -0.7290805 -1.2096462 2
0.3242638 -0.72508395 -1.1977122 2
0.32259262 -0.7226134 -1.1868639 2
0.3209002 -0.72013867 -1.1760771 2
0.3183924 -0.7171485 -1.1650312 2
0.31745124 -0.715177 -1.1546886 2
0.31728983 -0.7137141 -1.1447078 2
0.31631494 -0.7117361 -1.1344626 2
0.31452107 -0.70924175 -1.1239684 2
0.31350875 -0.7072565 -1.1138309 2
0.31328344 -0.7057813 -1.1040349 2
0.31385028 -0.7048171 -1.0945649 2
0.31359828 -0.7033367 -1.0848458 2
0.31333196 -0.7018536 -1.0751678 2
0.31223965 -0.6998528 -1.0652612 2
0.31112957 -0.6978486 -1.055406 2
0.3100016 -0.695841 -1.0456021 2
0.30967307 -0.6943459 -1.0361037 2
0.30851138 -0.69233173 -1.0263972 2
0.30733192 -0.6903141 -1.0167422 2
0.30531216 -0.68777615 -1.0068996 2
0.30327117 -0.68523407 -0.9971186 2
0.30120873 -0.6826879 -0.9873992 2
0.29995275 -0.6806555 -0.97796476 2
0.29701984 -0.6775831 -0.96814513 2
0.29489338 -0.67502457 -0.9586104 2
0.2910794 -0.67142385 -0.94872135 2
0.2872368 -0.6678177 -0.9389143 2
0.28252912 -0.66368634 -0.9289918 2
0.27695096 -0.6590288 -0.9189689 2
0.26965666 -0.6533237 -0.9086738 2
0.2623198 -0.6476103 -0.8985019 2
0.25409627 -0.6413677 -0.88827586 2
0.2441355 -0.63407326 -0.87783915 2
0.2341212 -0.6267686 -0.86755633 2
0.22405362 -0.61945355 -0.8574275 2
0.21478355 -0.61265063 -0.8476092 2
0.20972729 -0.6084519 -0.83869237 2
0.20463908 -0.604247 -0.82986784 2
0.20123124 -0.60108274 -0.8214182 2
0.19865656 -0.59843755 -0.8131766 2
0.19778025 -0.59683645 -0.8052585 2
0.19602811 -0.59470814 -0.7972557 2
0.19512153 -0.5931012 -0.78942484 2
0.19506586 -0.5920167 -0.7817507 2
0.19499946 -0.59093016 -0.77410734 2
0.19492257 -0.58984154 -0.76649475 2
0.19657588 -0.5898032 -0.75911343 2
0.19735336 -0.5892377 -0.7516473 2
0.19899774 -0.5891977 -0.7442916 2
0.20063865 -0.58915704 -0.73694617 2
0.20227599 -0.5891156 -0.72961104 2
0.20478904 -0.58960146 -0.72236073 2
0.20730221 -0.5900873 -0.7151104 2
0.2089324 -0.59004456 -0.7077958 2
0.21144378 -0.59053004 -0.7005506 2
0.2148416 -0.5915448 -0.69335943 2
0.21735477 -0.59203064 -0.6861091 2
0.21986794 -0.59251654 -0.67885876 2
0.22327292 -0.59353274 -0.6716472 2
0.22668147 -0.59454954 -0.66442525 2
0.23009348 -0.5955671 -0.65719306 2
0.23350918 -0.59658533 -0.6499506 2
0.23692834 -0.5976043 -0.6426978 2
0.24215257 -0.599688 -0.63546085 2
0.246485 -0.60124135 -0.6281852 2
0.25172877 -0.6033288 -0.6208918 2
0.2597015 -0.60701764 -0.6135604 2
0.26769543 -0.61071056 -0.6061674 2
0.2766204 -0.61494136 -0.5987002 2
0.2873931 -0.62024516 -0.59112555 2
0.29819775 -0.6255552 -0.58345854 1
0.5524864 -0.9505449 -1.7625337 1
0.5462545 -0.94425267 -1.7440271 1
0.5428784 -0.939966 -1.7277062 1
0.5423795 -0.93768924 -1.7135088 1
0.546239 -0.9384354 -1.7023745 1
0.5530255 -0.9412009 -1.6932199 1
0.55689216 -0.9419485 -1.6820648 1
0.5622294 -0.94370705 -1.6718793 1
0.5719962 -0.94850236 -1.664551 1
0.5862247 -0.9563405 -1.6599879 1
0.37484276 -0.7857451 -1.3394411 1
0.36965704 -0.78074527 -1.3257345 1
0.36905754 -0.7788124 -1.3144337 1
0.36534965 -0.77482504 -1.301676 1
0.3608352 -0.7703184 -1.288639 1
0.3562852 -0.7658049 -1.2757044 1
0.3524778 -0.7617983 -1.2632341 1
0.35097754 -0.7593279 -1.2519257 1
0.34945583 -0.7568534 -1.240679 1
0.34556293 -0.7528303 -1.2284551 1
0.34006786 -0.74777067 -1.2156413 1
0.33532047 -0.743219 -1.2032762 2
0.33132625 -0.73917633 -1.1913447 2
0.3288808 -0.7361598 -1.180157 2
0.32799482 -0.73417157 -1.1696823 2
0.32709122 -0.7321799 -1.159259 2
0.32696545 -0.73070204 -1.1491972 2
0.326028 -0.72870386 -1.1388714 2
0.32347405 -0.7256664 -1.1279967 2
0.3224975 -0.72366065 -1.1177837 2
0.32230604 -0.72217005 -1.1079118 2
0.32210028 -0.7206767 -1.0980809 2
0.32188022 -0.71918064 -1.0882912 2
0.3216461 -0.7176818 -1.0785424 2
0.31977773 -0.7151402 -1.0682962 2
0.31869972 -0.7131149 -1.0583756 2
0.31760395 -0.7110861 -1.0485064 2
0.3164903 -0.7090539 -1.0386885 2
0.315359 -0.7070182 -1.028922 2
0.31420982 -0.7049791 -1.0192066 2
0.31222224 -0.7024145 -1.0093042 2
0.31103575 -0.7003682 -0.9996967 2
0.3090073 -0.6977957 -0.9899123 2
0.30613148 -0.694696 -0.9799663 2
0.30405855 -0.6921149 -0.9703101 2
0.3011346 -0.6890059 -0.96050274 2
0.2965232 -0.6848439 -0.9503517 2
0.29187965 -0.6806757 -0.94029313 2
0.28720427 -0.6765013 -0.9303268 2
0.2824967 -0.6723207 -0.92045295 2
0.27608037 -0.66708297 -0.91029704 2
0.26878452 -0.6613118 -0.90007204 2
0.2622881 -0.6560586 -0.89014703 2
0.25322104 -0.6492183 -0.87981963 2
0.24325871 -0.64184153 -0.86946917 2
0.23154831 -0.63339996 -0.85894966 2
0.22147572 -0.62600183 -0.84891737 2
0.21475339 -0.62070495 -0.839644 2
0.20884454 -0.61592877 -0.8306297 2
0.20460916 -0.6122028 -0.822 2
0.20120156 -0.6090003 -0.81358826 2
0.19948494 -0.6068515 -0.8055098 2
0.19861054 -0.6052289 -0.7976083 2
0.19772184 -0.60360354 -0.78974783 2
0.19681883 -0.60197544 -0.7819284 2
0.19676685 -0.60087514 -0.7742602 2
0.19670415 -0.59977293 -0.76662284 2
0.1974994 -0.59919983 -0.7591162 2
0.19915807 -0.5991571 -0.7517249 2
0.19994104 -0.59858173 -0.7442541 2
0.20159078 -0.59853727 -0.73688847 2
0.20411277 -0.5990248 -0.7296125 2
0.20575726 -0.5989793 -0.7222623 2
0.20827758 -0.5994665 -0.7149914 2
0.21079779 -0.5999537 -0.7077206 2
0.21331799 -0.600441 -0.70044976 2
0.21583831 -0.6009282 -0.6931789 2
0.21835852 -0.6014154 -0.685908 2
0.22176707 -0.6024378 -0.67868066 2
0.22517908 -0.6034608 -0.6714431 2
0.22859478 -0.6044845 -0.6641952 2
0.23201394 -0.60550886 -0.6569371 2
0.23543668 -0.60653394 -0.6496687 2
0.23886299 -0.60755974 -0.64239 2
0.24409068 -0.60966057 -0.6351266 2
0.24932909 -0.6117634 -0.62783235 2
0.25548065 -0.6144062 -0.6205097 2
0.2634549 -0.6181282 -0.6131407 2
0.27235663 -0.62239283 -0.6057023 2
0.28219104 -0.62720114 -0.59817916 2
0.2929635 -0.63255423 -0.5905558 1
0.31197047 -0.64276975 -0.5826313 1
0.54810417 -0.959531 -1.7475374 1
0.5476588 -0.9572317 -1.7332189 1
0.5457392 -0.9539097 -1.7179515 1
0.54670393 -0.9526207 -1.704766 1
0.552034 -0.9543889 -1.6945903 1
0.5588347 -0.957179 -1.6853731 1
0.5641825 -0.9589507 -1.6751459 1
0.57541966 -0.96481174 -1.6687334 1
0.592589 -0.9747705 -1.6660118 1
0.3939873 -0.8087485 -1.3391545 1
0.3834628 -0.8000743 -1.322706 1
0.37672853 -0.79397714 -1.3083258 1
0.37226593 -0.7894258 -1.2951939 1
0.36931658 -0.78590465 -1.2828977 1
0.36711502 -0.78289694 -1.271045 1
0.36488843 -0.7798845 -1.259264 1
0.36263704 -0.77686715 -1.2475549 1
0.35801613 -0.77228516 -1.2348797 1
0.35179317 -0.7666557 -1.2216256 1
0.34788263 -0.7625799 -1.2095015 1
0.34394014 -0.7584979 -1.19747 1
0.33996558 -0.7544098 -1.1855308 1
0.33833027 -0.75188047 -1.1746448 2
0.33905017 -0.750913 -1.164766 2
0.33975947 -0.7499435 -1.154918 2
0.33886647 -0.7479266 -1.1444907 1
0.33476567 -0.74381405 -1.1329159 1
0.33303082 -0.7412654 -1.1223173 1
0.3320756 -0.7392364 -1.1120697 1
0.3319056 -0.7377281 -1.102158 1
0.33252585 -0.73674136 -1.0925664 2
0.33232915 -0.7352279 -1.0827315 2
0.3313099 -0.73318654 -1.0726688 2
0.329463 -0.7306163 -1.0623934 2
0.32840645 -0.72856766 -1.0524384 2
0.32733214 -0.72651565 -1.0425346 2
0.32624006 -0.7244602 -1.0326822 2
0.3251301 -0.7224013 -1.022881 2
0.32318354 -0.7198118 -1.0128931 2
0.32203627 -0.71774566 -1.0031997 2
0.31922638 -0.7146204 -0.99310184 2
0.3172158 -0.71201855 -0.98329854 2
0.31435788 -0.70888394 -0.9733392 2
0.31064737 -0.7052157 -0.9632391 2
0.3060788 -0.7010127 -0.95301366 2
0.30064678 -0.69627386 -0.9426783 2
0.29517937 -0.6915282 -0.9324455 2
0.28884137 -0.68624544 -0.92212343 2
0.28246427 -0.68095505 -0.91191417 2
0.27520967 -0.6751262 -0.901636 2
0.26875257 -0.66982037 -0.8916577 2
0.2605723 -0.6634437 -0.8814492 2
0.25065827 -0.65599406 -0.8710414 2
0.2398454 -0.64800185 -0.86062634 2
0.2281282 -0.63946587 -0.8502193 2
0.2205962 -0.63358337 -0.84074163 2
0.2138722 -0.628226 -0.83153296 2
0.2088145 -0.62392837 -0.8227186 2
0.20457923 -0.6201587 -0.8141322 2
0.20202804 -0.61745226 -0.8058888 2
0.20031333 -0.61527646 -0.79783225 2
0.19944072 -0.6136323 -0.7899473 2
0.19855392 -0.6119854 -0.7821033 2
0.19851613 -0.6108715 -0.7744103 2
0.19846773 -0.6097556 -0.7667481 2
0.19927561 -0.60917395 -0.75921637 2
0.20007622 -0.608591 -0.7517051 2
0.20174026 -0.6085439 -0.7443038 2
0.20340073 -0.608496 -0.7369128 2
0.20505762 -0.60844743 -0.72953206 2
0.20758688 -0.60893637 -0.72223556 2
0.21011603 -0.60942537 -0.714939 2
0.21176577 -0.6093754 -0.7075788 2
0.21429312 -0.609864 -0.7002874 2
0.21682048 -0.6103526 -0.6929961 2
0.2202326 -0.6113811 -0.685753 2
0.22364819 -0.61241025 -0.67849976 2
0.22706735 -0.61344016 -0.6712362 2
0.23049009 -0.6144707 -0.6639624 2
0.2339164 -0.61550194 -0.6566783 2
0.23734617 -0.6165339 -0.649384 2
0.2416749 -0.61810845 -0.64209706 2
0.24601078 -0.6196844 -0.63478947 2
0.2521516 -0.622347 -0.62747604 2
0.25920725 -0.6255554 -0.6201237 2
0.2671833 -0.62931055 -0.6127171 2
0.27698898 -0.6341571 -0.6052328 2
0.28772938 -0.63955325 -0.59765303 1
0.30213284 -0.64713305 -0.58990765 1
0.54704106 -0.97283643 -1.7489831 1
0.5466136 -0.9705078 -1.7346456 1
0.5447155 -0.9671461 -1.7193601 1
0.54714715 -0.9668675 -1.7071545 1
0.551028 -0.9676178 -1.6959584 1
0.5592885 -0.97146076 -1.6876984 1
0.5661068 -0.97427624 -1.6784081 1
0.57734025 -0.9801914 -1.6719518 1
0.59449136 -0.9902453 -1.6691842 1
0.39649868 -0.8190773 -1.3191061 1
0.38748252 -0.8113448 -1.3035951 1
0.38227236 -0.8062198 -1.2900794 1
0.378572 -0.80213535 -1.2773986 1
0.3756156 -0.7985691 -1.2651662 1
0.3749647 -0.7965715 -1.2540683 1
0.37039745 -0.79194516 -1.2412932 1
0.36657596 -0.7878373 -1.2289615 1
0.3619393 -0.7831975 -1.2163866 1
0.35648203 -0.77802473 -1.2035841 1
0.353346 -0.7744238 -1.19187 1
0.35254753 -0.7723977 -1.1811979 1
0.35489273 -0.7724767 -1.1718369 1
0.35485792 -0.7709726 -1.1615566 1
0.35322094 -0.7684101 -1.1507082 1
0.34917545 -0.7642589 -1.1390231 1
0.34509802 -0.7601016 -1.1274301 1
0.3441856 -0.7580535 -1.1170864 1
0.3432554 -0.7560019 -1.1067941 1
0.3439132 -0.7550061 -1.0971111 1
0.3437556 -0.7534782 -1.087185 1
0.34439027 -0.7524779 -1.0775688 1
0.34339786 -0.7504143 -1.067456 1
0.34238768 -0.74834734 -1.0573946 1
0.3389244 -0.7446831 -1.0466245 1
0.33787334 -0.7426082 -1.0366812 1
0.33517385 -0.7394659 -1.026303 1
0.33244956 -0.7363188 -1.0159967 2
0.32970023 -0.733167 -1.0057621 2
0.326926 -0.7300102 -0.99559945 2
0.32412696 -0.7268487 -0.9855086 2
0.321303 -0.7236824 -0.9754896 2
0.31928003 -0.72104526 -0.96575475 2
0.31309712 -0.7157322 -0.9550457 2
0.31019306 -0.7125504 -0.94525754 1
0.3056016 -0.7082936 -0.9351476 1
0.29847884 -0.7024246 -0.9245547 1
0.28964365 -0.69547576 -0.91371167 1
0.28243196 -0.68958944 -0.9033754 2
0.27433908 -0.68315846 -0.8929858 2
0.26620007 -0.6767186 -0.88272965 2
0.25548887 -0.6686583 -0.8721087 2
0.24640822 -0.6616621 -0.86197376 2
0.23558664 -0.65358055 -0.8516709 2
0.22640288 -0.6465643 -0.84183365 2
0.21971655 -0.641154 -0.83257675 2
0.21384203 -0.6362748 -0.8235731 2
0.20878446 -0.631928 -0.81480753 2
0.20454943 -0.6281145 -0.80626434 2
0.20285451 -0.62591517 -0.7981785 2
0.20114172 -0.62371236 -0.79014385 2
0.20027089 -0.62204665 -0.7822754 2
0.20024753 -0.6209191 -0.7745576 2
0.20021343 -0.6197895 -0.76687056 2
0.20103371 -0.6191994 -0.7593137 2
0.20097995 -0.61806595 -0.7516831 2
0.20265293 -0.618015 -0.7442616 2
0.20432234 -0.61796343 -0.7368503 2
0.20598817 -0.6179111 -0.72944933 2
0.20852447 -0.6184014 -0.7221323 2
0.21106064 -0.6188917 -0.71481526 2
0.21359694 -0.6193821 -0.70749825 2
0.21525383 -0.619328 -0.7001229 2
0.21866953 -0.6203627 -0.6928642 2
0.22208858 -0.62139803 -0.6855952 2
0.22551131 -0.622434 -0.67831606 2
0.22893763 -0.6234708 -0.6710266 2
0.2323674 -0.6245082 -0.6637268 2
0.23580074 -0.6255463 -0.65641683 2
0.23923767 -0.62658507 -0.64909655 2
0.24357176 -0.6281716 -0.6417833 2
0.24970353 -0.63085437 -0.63447386 2
0.2558496 -0.6335399 -0.62712336 2
0.26290882 -0.6367763 -0.61973375 2
0.27178705 -0.6411131 -0.6122863 2
0.28249514 -0.64655226 -0.6047503 1
0.29233098 -0.65144855 -0.5971354 1
0.3148793 -0.6640432 -0.5891776 1
0.54843795 -0.9859018 -1.7381086 1
0.54512286 -0.98146266 -1.7217755 1
0.549018 -0.9822157 -1.7105381 1
0.5514604 -0.9819283 -1.6983125 1
0.55680823 -0.9837218 -1.6880639 1
0.5650828 -0.98760027 -1.6797302 1
0.57630527 -0.993568 -1.6732504 1
0.5934311 -1.0037155 -1.6704571 1
0.4040885 -0.82961726 -1.2792385 1
0.3988626 -0.82442904 -1.2658284 1
0.38970792 -0.81658214 -1.2508042 1
0.3828355 -0.81031585 -1.2369651 1
0.3743539 -0.80297893 -1.222589 1
0.36973524 -0.79828787 -1.210017 1
0.36822104 -0.7957162 -1.198847 1
0.3690461 -0.79473627 -1.1886978 1
0.3698604 -0.7937542 -1.1785796 1
0.370664 -0.7927702 -1.168492 1
0.3682884 -0.78965217 -1.1572177 1
0.36509395 -0.7859961 -1.1457162 1
0.361871 -0.78233445 -1.1342968 1
0.3610121 -0.7802693 -1.1238263 1
0.36093473 -0.7787351 -1.113691 1
0.3592409 -0.77612877 -1.1030393 1
0.36234283 -0.7767284 -1.0940905 1
0.36383545 -0.77625734 -1.084605 1
0.3629018 -0.77417773 -1.0743499 1
0.36114228 -0.7715587 -1.0638881 1
0.3593614 -0.76893544 -1.0534878 1
0.3543123 -0.76416117 -1.0421575 1
0.3532951 -0.7620655 -1.0321437 1
0.34981418 -0.758354 -1.0214682 1
0.346305 -0.754637 -1.0108749 1
0.34686136 -0.7536052 -1.0015006 1
0.34248352 -0.7493404 -0.9908235 1
0.3372512 -0.74453074 -0.9800217 1
0.33280742 -0.74025327 -0.9695345 1
0.3283317 -0.73596966 -0.95913965 1
0.31885767 -0.7284409 -0.9476268 1
0.3076712 -0.71982133 -0.9358747 1
0.29891813 -0.71281177 -0.92487144 1
0.2976128 -0.71066034 -0.9156889 1
0.28961098 -0.7041757 -0.905108 2
0.28156292 -0.69768226 -0.8946605 2
0.2717917 -0.690096 -0.88400453 2
0.26028693 -0.68141496 -0.87317085 2
0.25040555 -0.6738074 -0.862833 2
0.2421583 -0.66727537 -0.8529602 2
0.23301923 -0.6601911 -0.8430705 2
0.22552502 -0.6541845 -0.8336149 2
0.21883714 -0.6487136 -0.82442266 2
0.21296096 -0.64377946 -0.8154783 2
0.20875442 -0.6399277 -0.8068964 2
0.20537388 -0.6366154 -0.79852134 2
0.20368087 -0.63438904 -0.79045737 2
0.20282793 -0.63270485 -0.78255916 2
0.2019608 -0.6310179 -0.7747021 2
0.20194101 -0.62987465 -0.7669902 2
0.20277381 -0.62927604 -0.7594083 2
0.20273447 -0.62812895 -0.7517529 2
0.20441806 -0.6280746 -0.74430597 2
0.20609808 -0.6280196 -0.73686934 2
0.20777464 -0.6279639 -0.7294429 2
0.21031976 -0.62845594 -0.72210026 2
0.212865 -0.628948 -0.71475756 2
0.2145344 -0.6288909 -0.70735174 2
0.21795523 -0.62993205 -0.7000722 2
0.22050047 -0.6304241 -0.69272953 2
0.22392666 -0.63146627 -0.68543464 2
0.22735643 -0.6325091 -0.6781295 2
0.23078978 -0.63355273 -0.6708141 2
0.2342267 -0.63459694 -0.66348845 2
0.2376672 -0.6356419 -0.6561525 2
0.24200118 -0.6372394 -0.64882845 2
0.2463423 -0.6388383 -0.64148384 2
0.25337112 -0.64209616 -0.6341544 2
0.25952244 -0.64480466 -0.62676686 2
0.266585 -0.6480691 -0.6193399 2
0.27636206 -0.65299773 -0.61185104 1
0.28706813 -0.65848583 -0.6042715 1
0.30322087 -0.6673058 -0.5965168 1
0.3266605 -0.680573 -0.58845705 1
0.5487951 -1.000329 -1.7405486 1
0.5469507 -0.9968901 -1.7251956 1
0.54652345 -0.9944958 -1.7109232 1
0.54897296 -0.99419874 -1.6986878 1
0.5543208 -0.9960032 -1.6884282 1
0.562588 -0.99991316 -1.6800826 1
0.57379615 -1.0059328 -1.6735897 1
0.58796656 -1.0140665 -1.6688879 1
0.41145158 -0.84162176 -1.2503945 1
0.39839172 -0.8310058 -1.233803 1
0.38994598 -0.8235936 -1.2194057 1
0.38927925 -0.82153827 -1.208408 1
0.38545465 -0.8173313 -1.1961839 1
0.38631892 -0.8163424 -1.1859381 1
0.38244092 -0.81212515 -1.173868 1
0.37774062 -0.8073635 -1.1615859 1
0.3753811 -0.8042103 -1.1503035 1
0.37617242 -0.8032074 -1.1402681 1
0.376953 -0.8022024 -1.1302634 1
0.3817103 -0.80389273 -1.1217073 1
0.38487613 -0.80450475 -1.1125739 1
0.38804197 -0.8051168 -1.1034404 1
0.38719392 -0.8030263 -1.0929662 1
0.38713253 -0.8014733 -1.0828063 1
0.3838315 -0.7977528 -1.071656 1
0.38373458 -0.7961929 -1.0615987 1
0.37147474 -0.7865022 -1.047868 1
0.37456942 -0.7871005 -1.0389398 1
0.38091803 -0.789869 -1.030961 1
0.3456422 -0.7564641 -0.95442003 1
0.3171686 -0.7363184 -0.9383653 1
0.31095576 -0.73087907 -0.9278625 1
0.3022101 -0.7237942 -0.91691446 1
0.29591382 -0.7183388 -0.9066529 1
0.28707385 -0.7112357 -0.89597684 2
0.27483773 -0.7019349 -0.8847618 2
0.26337588 -0.6931691 -0.87389696 2
0.25437415 -0.68603474 -0.8636879 2
0.24616444 -0.67943877 -0.85377765 2
0.2379086 -0.6728339 -0.8440009 2
0.23045194 -0.66676885 -0.8345025 2
0.22379982 -0.66124463 -0.82526714 2
0.2171086 -0.65571284 -0.81614465 2
0.21207988 -0.6512731 -0.8073943 2
0.20872438 -0.64792734 -0.7989853 2
0.20619845 -0.64512724 -0.79076743 2
0.20450723 -0.6428738 -0.78272533 2
0.2036562 -0.6411681 -0.77484375 2
0.20279098 -0.63945967 -0.7670031 2
0.2036345 -0.6388521 -0.7594012 2
0.20447087 -0.63824326 -0.75181985 2
0.2061652 -0.6381855 -0.7443475 2
0.20785594 -0.6381271 -0.73688555 2
0.20954311 -0.63806796 -0.7294337 2
0.21209717 -0.6385617 -0.72206545 2
0.21465123 -0.63905543 -0.71469706 2
0.21720529 -0.6395492 -0.70732874 2
0.21975935 -0.64004296 -0.6999604 2
0.2231909 -0.6410917 -0.6926447 2
0.22662604 -0.64214104 -0.68531877 2
0.22918367 -0.64263546 -0.67794013 2
0.23350692 -0.64424187 -0.6706361 2
0.23606813 -0.644737 -0.6632472 2
0.24040198 -0.64634544 -0.65591234 2
0.24474311 -0.64795524 -0.64855695 2
0.24998128 -0.6501238 -0.64119774 2
0.25612175 -0.65285206 -0.63381934 2
0.26227653 -0.6555831 -0.6263999 2
0.27202678 -0.66055036 -0.61894476 2
0.2818054 -0.6655232 -0.61140746 1
0.29790437 -0.6744149 -0.6037256 1
0.3194605 -0.6866733 -0.5958055 1
0.5563048 -1.0201125 -1.7480755 1
0.54443467 -1.0092208 -1.7255881 1
0.5469055 -1.0089169 -1.7133021 1
0.5464784 -1.0064898 -1.6990619 1
0.5518261 -1.0083051 -1.6887915 1
0.56008613 -1.0122466 -1.680434 1
0.5712799 -1.0183182 -1.673928 1
0.58250916 -1.0243969 -1.6673193 1
0.41900408 -0.8521107 -1.2106779 1
0.40818238 -0.84298474 -1.1954811 1
0.40437758 -0.8387323 -1.1832491 1
0.39028943 -0.82741183 -1.1671603 1
0.38718784 -0.82368606 -1.1554785 1
0.3888104 -0.8232182 -1.1456399 1
0.39836478 -0.82819146 -1.138706 1
0.40317357 -0.8299026 -1.1299902 1
0.4047997 -0.82943547 -1.1201415 1
0.40801716 -0.83005744 -1.1108592 1
0.41043353 -0.83013386 -1.1013091 1
0.41766322 -0.8334853 -1.0933456 1
0.3183875 -0.7447362 -0.92073596 1
0.3046707 -0.734269 -0.90873367 1
0.2933818 -0.72544354 -0.89746314 1
0.28036284 -0.715502 -0.88602626 1
0.2672763 -0.7055475 -0.87478447 2
0.2583139 -0.6983441 -0.8645382 2
0.25014186 -0.6916843 -0.8545906 2
0.2436074 -0.68612254 -0.8450761 2
0.23619008 -0.6799994 -0.83552974 2
0.22873008 -0.673868 -0.8261066 2
0.22207475 -0.6682829 -0.816941 2
0.2162292 -0.66324514 -0.8080176 2
0.21204972 -0.659311 -0.79944533 2
0.20869434 -0.65592694 -0.7910742 2
0.20616853 -0.65309405 -0.78288877 2
0.20533359 -0.6513695 -0.77498263 2
0.20448434 -0.6496423 -0.7671175 2
0.20534039 -0.6490262 -0.7594905 2
0.20618927 -0.64840883 -0.751884 2
0.20789433 -0.6483477 -0.7443863 2
0.2095958 -0.6482858 -0.7368989 2
0.2112937 -0.6482233 -0.7294218 2
0.21385658 -0.6487188 -0.7220278 2
0.21641958 -0.64921427 -0.7146338 2
0.2198546 -0.6502691 -0.7073024 2
0.22241938 -0.6507649 -0.6999033 2
0.22498405 -0.65126073 -0.69250417 2
0.22842634 -0.6523169 -0.6851523 2
0.23187208 -0.65337384 -0.67779016 2
0.2353214 -0.65443146 -0.6704178 2
0.2387743 -0.65548974 -0.66303504 2
0.2431153 -0.6571105 -0.65566885 2
0.24834979 -0.6592948 -0.6483037 2
0.253595 -0.6614811 -0.6409077 2
0.25974083 -0.66423225 -0.63349223 2
0.26679254 -0.6675494 -0.62604195 2
0.27564907 -0.67199695 -0.6185425 1
0.28811157 -0.67870474 -0.6109549 1
0.31317186 -0.69331867 -0.60312533 1
0.54478085 -1.0237117 -1.727994 1
0.54582775 -1.0223291 -1.7146807 1
0.5454185 -1.0198724 -1.7004216 1
0.54787886 -1.0195556 -1.6881771 1
0.55612814 -1.0235279 -1.6798179 1
0.5673038 -1.0296509 -1.6733091 1
0.5799712 -1.0368547 -1.6676433 1
0.9018482 -1.2393515 -1.6499789 1
0.90642977 -1.2402372 -1.636761 1
0.9185766 -1.2465479 -1.6274505 1
0.30048144 -0.74032116 -0.8991184 1
0.28751802 -0.73028636 -0.88762534 1
0.27615654 -0.72135377 -0.87665725 1
0.2630614 -0.7112935 -0.86554384 1
0.25492883 -0.7045701 -0.8555537 2
0.24843013 -0.6989551 -0.84599614 2
0.24189234 -0.6933325 -0.8365514 2
0.23447168 -0.687143 -0.82708025 2
0.22700846 -0.6809452 -0.81773233 2
0.22034967 -0.6752993 -0.80863655 2
0.21619892 -0.6713269 -0.80002534 2
0.21201956 -0.6673489 -0.79149634 2
0.20951688 -0.66448766 -0.7832767 2
0.20784724 -0.66218364 -0.77522725 2
0.20701599 -0.66043794 -0.76733243 2
0.20702839 -0.65925163 -0.7595769 2
0.20788968 -0.65862566 -0.7519453 2
0.20960546 -0.6585611 -0.7444223 2
0.21131754 -0.65849584 -0.73690957 2
0.21302617 -0.6584299 -0.729407 2
0.21559799 -0.65892714 -0.72198737 2
0.21903849 -0.65998846 -0.7146352 2
0.2216121 -0.660486 -0.7072104 2
0.22505784 -0.6615484 -0.6998428 2
0.22763312 -0.66204625 -0.6924129 2
0.23108423 -0.66310966 -0.68503 2
0.23366141 -0.6636079 -0.67759496 2
0.23799706 -0.66523856 -0.67023325 2
0.24233985 -0.6668706 -0.6628511 2
0.24668968 -0.66850406 -0.6554484 2
0.2519313 -0.6707061 -0.6480465 2
0.25718355 -0.6729102 -0.64061373 2
0.26333463 -0.6756843 -0.6331613 2
0.2712797 -0.67959774 -0.62567955 1
0.28192127 -0.6852212 -0.6181386 1
0.302423 -0.6971095 -0.6104574 1
0.33105302 -0.7141355 -0.6024854 1
0.54367435 -1.037184 -1.7293897 1
0.54186606 -1.0336206 -1.7140639 1
0.5429059 -1.0322149 -1.7007928 1
0.54537344 -1.0318882 -1.6885386 1
0.55217004 -1.0348091 -1.6792018 1
0.56332767 -1.0409834 -1.6726904 1
0.57887864 -1.0504174 -1.6689115 1
0.9062276 -1.259124 -1.6540661 1
0.9078188 -1.2578249 -1.6392045 1
0.9139241 -1.2598085 -1.6267264 1
0.3021108 -0.7502554 -0.8907461 1
0.28831828 -0.7395546 -0.8791809 1
0.2727852 -0.7277138 -0.86750185 1
0.25968337 -0.71754825 -0.8565118 1
0.25322044 -0.71187997 -0.8469111 2
0.24671853 -0.70620406 -0.8374233 2
0.2401774 -0.7005206 -0.82804835 2
0.23190975 -0.6936999 -0.8185185 2
0.22528684 -0.68800056 -0.80937964 2
0.21947205 -0.68285924 -0.80047727 2
0.21531951 -0.6788427 -0.7919146 2
0.2119894 -0.67538685 -0.7835474 2
0.21033943 -0.6730593 -0.77546847 2
0.20867169 -0.67072827 -0.76744086 2
0.20869827 -0.66952825 -0.75966054 2
0.2095722 -0.66889375 -0.7520039 2
0.21129858 -0.6688258 -0.7444555 2
0.2130214 -0.66875714 -0.7369173 2
0.21474075 -0.6686878 -0.7293894 2
0.2173214 -0.6691867 -0.72194415 2
0.21990216 -0.6696856 -0.7144988 2
0.22335148 -0.6707542 -0.7071156 2
0.22680426 -0.6718234 -0.69972205 2
0.23026073 -0.6728933 -0.6923183 2
0.23284674 -0.67339325 -0.68485767 2
0.23718417 -0.6750352 -0.67748004 2
0.24065125 -0.6761072 -0.6700455 2
0.24500108 -0.67775154 -0.662632 2
0.24935806 -0.6793973 -0.6551979 2
0.25460482 -0.6816168 -0.6477643 2
0.25986242 -0.68383837 -0.6403 2
0.26690328 -0.6872081 -0.6328264 1
0.27662623 -0.6923016 -0.62531835 1
0.5411259 -1.049607 -1.7297769 1
0.5407667 -1.0470943 -1.7154391 1
0.5418209 -1.0456693 -1.7021487 1
0.544299 -1.0453341 -1.6898744 1
0.5510955 -1.0482769 -1.6805162 1
0.5622424 -1.0545037 -1.6739812 1
0.5748738 -1.061832 -1.6682882 1
0.9105637 -1.2790198 -1.6581469 1
0.9061744 -1.2732849 -1.6400621 1
0.91378903 -1.2763858 -1.6283433 1
0.2987529 -0.7568043 -0.8813658 1
0.28578675 -0.74656093 -0.8700885 1
0.26690972 -0.7323244 -0.85792726 1
0.25797844 -0.7248971 -0.847821 1
0.25318885 -0.7203064 -0.8385779 2
0.24500692 -0.71343106 -0.82887214 2
0.23762059 -0.7071167 -0.8194334 2
0.23019159 -0.7007942 -0.8101178 2
0.22441077 -0.6956047 -0.8011721 2
0.21859431 -0.6904083 -0.79232895 2
0.21444023 -0.68634766 -0.78381467 2
0.21280992 -0.6839965 -0.7757063 2
0.21116185 -0.68164194 -0.76764935 2
0.21120465 -0.6804285 -0.7598391 2
0.2112366 -0.67921317 -0.75205964 2
0.21297371 -0.6791418 -0.74448586 2
0.21470726 -0.6790697 -0.7369223 2
0.21643722 -0.678997 -0.72936904 2
0.21902692 -0.6794976 -0.7218981 2
0.22248149 -0.6805726 -0.71449405 2
0.22507286 -0.6810736 -0.70701796 2
0.22853279 -0.6821497 -0.69959855 2
0.2319963 -0.68322647 -0.69216883 2
0.2363354 -0.6848797 -0.68477523 2
0.23980784 -0.6859582 -0.6773199 2
0.24415934 -0.68761384 -0.6698904 2
0.24764061 -0.68869406 -0.6624094 2
0.25200474 -0.6903521 -0.654944 2
0.25725675 -0.6925891 -0.6474789 2
0.26340234 -0.6954059 -0.6399985 2
0.2686776 -0.69764733 -0.63246655 1
0.5485381 -1.0697548 -1.7372022 1
0.54393554 -1.0639131 -1.7197981 1
0.5435835 -1.061369 -1.7054722 1
0.54607964 -1.0610261 -1.6931577 1
0.5514449 -1.0628886 -1.6827927 1
0.5611427 -1.0680649 -1.6752698 1
0.57375956 -1.0754561 -1.6695528 1
0.9148568 -1.2990386 -1.6622207 1
0.9090117 -1.2921312 -1.6432879 1
0.91513467 -1.2941403 -1.6307368 1
0.29456413 -0.762736 -0.8718696 1
0.28075647 -0.75181323 -0.860567 1
0.26520824 -0.7397286 -0.8491722 1
0.2579466 -0.73337275 -0.83943915 1
0.24980414 -0.72643393 -0.8296908 2
0.24329543 -0.72063625 -0.8203426 2
0.23590589 -0.7142556 -0.81097907 2
0.22931719 -0.70844245 -0.8018617 2
0.2235347 -0.70319784 -0.7929752 2
0.21856391 -0.6985228 -0.78430414 2
0.21525884 -0.6949952 -0.77594084 2
0.21448123 -0.69319415 -0.76795703 2
0.21368921 -0.6913904 -0.7600143 2
0.21373737 -0.6901617 -0.7522049 2
0.21463084 -0.68950903 -0.7445134 2
0.21637511 -0.6894336 -0.73692447 2
0.2181158 -0.6893574 -0.7293459 2
0.22071433 -0.68985975 -0.72184926 2
0.22417605 -0.6909417 -0.71441925 2
0.22764122 -0.69202423 -0.70697904 2
0.2311101 -0.6931075 -0.6995285 2
0.23458242 -0.6941915 -0.6920678 2
0.23805833 -0.69527614 -0.6845967 2
0.24240983 -0.69694275 -0.67715645 2
0.24589467 -0.69802904 -0.6696598 2
0.25025868 -0.6996981 -0.6621835 2
0.25462973 -0.70136845 -0.6546868 2
0.2598871 -0.7036229 -0.64719 2
0.2669171 -0.70704526 -0.639693 1
0.27926135 -0.7139711 -0.63220596 1
0.5484923 -1.0819459 -1.725146 1
0.54674494 -1.0782628 -1.7097759 1
0.5464003 -1.0756874 -1.695462 1
0.55033815 -1.0764487 -1.6841018 1
0.56002855 -1.0816672 -1.6765561 1
0.5740727 -1.0902362 -1.6717589 1
0.9191067 -1.3191805 -1.6662881 1
0.913308 -1.3122053 -1.6472974 1
0.92094743 -1.3153548 -1.6354635 1
0.9391165 -1.3263941 -1.6289716 1
0.29499757 -0.7732699 -0.87205565 1
0.28705096 -0.76629776 -0.8618132 1
0.27739227 -0.75815827 -0.8514073 1
0.26350677 -0.74711096 -0.8404387 1
0.25540543 -0.74010885 -0.8306427 2
0.24893427 -0.73425823 -0.82124627 2
0.24242413 -0.72840005 -0.81196266 2
0.23503292 -0.7219534 -0.80266917 2
0.22844267 -0.7160797 -0.79361653 2
0.22265863 -0.7107801 -0.78478926 2
0.2185334 -0.7066374 -0.77627945 2
0.21692646 -0.704236 -0.76815856 2
0.21615231 -0.70241374 -0.7601861 2
0.21621656 -0.7011717 -0.75234675 2
0.21627009 -0.69992757 -0.7445382 2
0.21802497 -0.6998487 -0.73692393 2
0.21977639 -0.6997692 -0.7293199 2
0.22238374 -0.7002733 -0.72179765 2
0.22585261 -0.70136195 -0.7143417 2
0.22932494 -0.7024514 -0.7068755 2
