ply
format ascii 1.0
comment v20 pointcloud — conf>=1, radius=1.7m, n=6479
element vertex 1403
property float x
property float y
property float z
property uchar confidence
end_header
0.92477834 -0.70437205 -2.6689146 2
0.93638825 -0.7033796 -2.661747 2
0.94797814 -0.70238775 -2.6545882 2
0.9595481 -0.70139647 -2.6474383 2
0.97052217 -0.6997708 -2.6385298 2
0.9814563 -0.6981463 -2.629639 2
0.9929464 -0.6971573 -2.6225245 2
1.0044165 -0.69616896 -2.6154187 2
1.0158666 -0.6951812 -2.608322 2
1.0272969 -0.694194 -2.601234 2
1.0387071 -0.69320744 -2.5941548 2
1.0507433 -0.6928544 -2.588821 2
1.0627794 -0.6925013 -2.583487 2
1.0734841 -0.6908836 -2.574698 2
1.0848244 -0.689899 -2.5676498 2
1.0954591 -0.68828326 -2.5588915 2
1.1074454 -0.68793166 -2.5535798 2
1.1180202 -0.6863177 -2.5448482 2
1.1292708 -0.6853358 -2.53784 2
1.1412271 -0.6849851 -2.5325415 2
1.1531833 -0.6846344 -2.527243 2
1.1658853 -0.68491364 -2.5236366 2
1.1778516 -0.6845626 -2.5183337 2
1.1905835 -0.6848411 -2.514714 2
1.2033353 -0.6851189 -2.5110857 2
1.216107 -0.68539613 -2.5074484 2
1.2288988 -0.6856728 -2.5038023 2
1.2425159 -0.68657714 -2.501813 2
1.2561731 -0.68748033 -2.499806 2
1.2690446 -0.68775463 -2.4961245 2
1.2827717 -0.68865573 -2.4940865 2
1.2956932 -0.6889286 -2.490383 2
1.30949 -0.6898277 -2.488314 2
1.3224614 -0.69009906 -2.4845881 2
1.336328 -0.6909961 -2.4824882 2
1.3502347 -0.69189197 -2.4803708 2
1.3641813 -0.69278663 -2.4782355 2
1.3772625 -0.6930548 -2.474461 2
1.3912789 -0.69394743 -2.4722948 2
1.4053352 -0.6948389 -2.470111 2
1.4194314 -0.6957292 -2.4679093 2
1.4335676 -0.6966183 -2.4656901 2
1.4467885 -0.69688237 -2.4618537 2
1.4609946 -0.6977694 -2.4596035 2
1.4752406 -0.6986553 -2.4573355 2
1.4885414 -0.69891703 -2.453464 2
1.5018619 -0.6991782 -2.4495835 2
1.5162077 -0.7000612 -2.4472713 2
1.5305934 -0.700943 -2.4449415 2
1.543994 -0.7012018 -2.4410253 2
1.5584495 -0.7020815 -2.4386644 2
1.57399 -0.70358133 -2.4378457 2
1.5895904 -0.7050794 -2.437 2
1.6052507 -0.7065757 -2.4361281 2
1.6209708 -0.7080702 -2.4352293 2
1.6356659 -0.70894295 -2.4327624 2
1.648211 -0.70857495 -2.427203 2
1.662966 -0.7094459 -2.4247093 2
1.675531 -0.70907736 -2.4191413 2
1.6880962 -0.70870876 -2.4135728 2
1.7017962 -0.7089588 -2.4095242 2
1.7143712 -0.7085899 -2.4039516 2
1.7269462 -0.7082211 -2.3983788 2
1.740686 -0.7084699 -2.3943124 2
1.7544459 -0.7087182 -2.3902373 2
1.7682257 -0.70896584 -2.3861535 2
1.7820255 -0.70921296 -2.3820605 2
1.7970499 -0.71007603 -2.3794477 2
1.8121142 -0.7109379 -2.376817 2
1.828443 -0.71241456 -2.3756485 2
1.844832 -0.7138895 -2.3744535 2
1.8612807 -0.71536267 -2.3732324 2
1.8765346 -0.716219 -2.3705177 2
1.8956224 -0.71891856 -2.3721719 2
1.917359 -0.7228441 -2.3766975 2
1.9418044 -0.7279941 -2.384068 1
1.9677241 -0.73375267 -2.3928077 1
1.9964523 -0.7407326 -2.4043481 1
2.0214767 -0.7458656 -2.4114618 1
0.5986657 -0.7669589 -2.9321542 1
0.60638624 -0.7541496 -2.890372 1
0.61620665 -0.74723905 -2.8658302 2
0.6269693 -0.7429498 -2.8489468 2
0.6379076 -0.7393177 -2.8340046 2
0.64874595 -0.7356885 -2.8191066 2
0.6598001 -0.73271525 -2.8061318 2
0.6707743 -0.7297443 -2.7931926 2
0.68166864 -0.7267757 -2.780289 2
0.6924832 -0.7238095 -2.7674205 2
0.7032178 -0.7208456 -2.7545874 2
0.7142379 -0.71853554 -2.7436469 2
0.7255734 -0.71687853 -2.7345855 2
0.7372543 -0.71587366 -2.72739 2
0.7489152 -0.7148694 -2.7202034 2
0.7609613 -0.714516 -2.7148652 2
0.7730074 -0.71416265 -2.7095268 2
0.7854787 -0.71445906 -2.7060192 2
0.79796994 -0.71475494 -2.7025025 2
0.8104811 -0.71505016 -2.698977 2
0.8234674 -0.71599376 -2.69726 2
0.8364935 -0.7169362 -2.6955254 2
0.84955966 -0.7178774 -2.693773 2
0.8631507 -0.7194655 -2.693807 2
0.87630665 -0.7204041 -2.6920147 2
0.88899755 -0.72069407 -2.6884098 2
0.90170836 -0.72098345 -2.6847959 2
0.9139141 -0.7206254 -2.6793869 2
0.9255849 -0.7196208 -2.6721957 2
0.93778074 -0.7192631 -2.6667912 2
0.94942176 -0.71825933 -2.6596134 2
0.9599129 -0.71596485 -2.6489072 2
0.97149396 -0.7149629 -2.641756 2
0.983055 -0.7139615 -2.6346138 2
0.99400127 -0.7123159 -2.6257248 2
1.0049076 -0.7106715 -2.6168537 2
1.0163889 -0.70967245 -2.6097467 2
1.0278502 -0.708674 -2.6026485 2
1.0399262 -0.7083198 -2.597297 2
1.0513575 -0.7073222 -2.590212 2
1.0634235 -0.70696825 -2.5848649 2
1.0754896 -0.7066143 -2.5795178 2
1.086881 -0.7056179 -2.5724506 2
1.0975678 -0.7039799 -2.5636768 2
1.1089094 -0.702985 -2.5566316 2
1.1209354 -0.70263225 -2.5513022 2
1.1315324 -0.7009969 -2.5425682 2
1.1435387 -0.7006447 -2.5372474 2
1.1555449 -0.70029247 -2.5319269 2
1.167551 -0.6999403 -2.5266063 2
1.1795572 -0.6995881 -2.5212855 2
1.192328 -0.6998758 -2.5176451 2
1.2051185 -0.7001628 -2.513996 2
1.2179292 -0.7004493 -2.5103378 2
1.2307597 -0.7007352 -2.5066707 2
1.2444147 -0.70165914 -2.5046575 2
1.2572951 -0.7019436 -2.5009685 2
1.2710199 -0.7028655 -2.4989243 2
1.2839503 -0.7031485 -2.495213 2
1.297745 -0.7040683 -2.4931378 2
1.3115796 -0.704987 -2.4910448 2
1.3245897 -0.7052676 -2.4872983 2
1.3384942 -0.70618427 -2.4851742 2
1.3524386 -0.70709974 -2.4830327 2
1.3664229 -0.708014 -2.4808736 2
1.3795428 -0.7082914 -2.4770782 2
1.393597 -0.70920366 -2.4748878 2
1.4076911 -0.7101148 -2.47268 2
1.421825 -0.7110247 -2.4704545 2
1.435999 -0.71193343 -2.4682112 2
1.4502128 -0.712841 -2.4659503 2
1.4635025 -0.71311337 -2.4620798 2
1.4777862 -0.71401894 -2.4597878 2
1.4921098 -0.71492326 -2.457478 2
1.5054793 -0.71519333 -2.4535723 2
1.5198728 -0.7160956 -2.451232 2
1.5332922 -0.71636426 -2.4473038 2
1.5477555 -0.7172645 -2.4449325 2
1.5622587 -0.71816355 -2.442543 2
1.5788898 -0.72032475 -2.4432487 2
1.5945468 -0.72185224 -2.4423673 2
1.6102637 -0.72337794 -2.4414592 2
1.6249666 -0.7242712 -2.4389815 2
1.6386255 -0.7245328 -2.4349475 2
1.6523043 -0.7247938 -2.4309044 2
1.6660032 -0.7250542 -2.4268527 2
1.6786083 -0.7246844 -2.4212668 2
1.6912133 -0.7243147 -2.415681 2
1.704952 -0.7245739 -2.4116113 2
1.717567 -0.7242039 -2.4060209 2
1.7301819 -0.72383386 -2.4004304 2
1.7439606 -0.72409195 -2.3963432 2
1.7577593 -0.72434944 -2.3922472 2
1.7715778 -0.72460634 -2.3881426 2
1.7866101 -0.7254899 -2.385519 2
1.8004786 -0.7257453 -2.381392 2
1.8167943 -0.7272535 -2.3802185 2
1.8331699 -0.7287599 -2.3790185 2
1.8496053 -0.73026454 -2.377792 2
1.8673441 -0.7323932 -2.378007 2
1.8839093 -0.73389405 -2.3767228 2
1.9043249 -0.73726875 -2.3797894 2
1.9299543 -0.74313945 -2.3886213 1
1.9570665 -0.74962896 -2.3988152 1
1.9818115 -0.7548634 -2.4060202 1
2.014557 -0.7638366 -2.4217935 1
0.60057306 -0.7889026 -2.9528487 1
0.6073866 -0.7732326 -2.9034765 1
0.61675906 -0.7648862 -2.875139 1
0.62731373 -0.75986826 -2.8563542 2
0.6380231 -0.75551844 -2.8395164 2
0.6486126 -0.7511721 -2.8227315 2
0.65971094 -0.7481561 -2.8097517 2
0.67105365 -0.7458055 -2.798679 2
0.6820023 -0.7427939 -2.785766 2
0.69252694 -0.7391221 -2.7710252 2
0.7033059 -0.73611546 -2.758187 2
0.7143692 -0.73377305 -2.7472382 2
0.72574687 -0.7320941 -2.7381654 2
0.7374687 -0.7310776 -2.7309556 2
0.7495647 -0.7307228 -2.725595 2
0.7612566 -0.72970724 -2.7183983 2
0.7733426 -0.7293527 -2.7130425 2
0.78542864 -0.7289982 -2.7076864 2
0.7979487 -0.72930354 -2.7041533 2
0.8109329 -0.7302679 -2.70243 2
0.8244108 -0.7318904 -2.7025032 2
0.8374847 -0.73285216 -2.70074 2
0.8505986 -0.7338127 -2.6989594 2
0.86375237 -0.7347721 -2.6971607 2
0.876946 -0.7357303 -2.6953447 2
0.8896756 -0.7360295 -2.6917188 2
0.9019114 -0.73567057 -2.6862965 2
0.91414714 -0.7353117 -2.680874 2
0.9263828 -0.73495275 -2.6754518 2
0.9380748 -0.7339372 -2.668255 2
0.9497467 -0.7329222 -2.6610672 2
0.96083486 -0.7312517 -2.6521227 2
0.97245693 -0.73023814 -2.6449568 2
0.9834753 -0.72856975 -2.6360433 2
0.99445367 -0.7269025 -2.6271477 2
1.0059959 -0.7258913 -2.6200173 2
1.0169045 -0.72422606 -2.6111524 2
1.0290204 -0.72387064 -2.605783 2
1.0405028 -0.72286123 -2.5986793 2
1.0526087 -0.7225061 -2.5933144 2
1.0647148 -0.722151 -2.5879495 2
1.0761571 -0.7211427 -2.5808635 2
1.0882531 -0.72078794 -2.575503 2
1.0996656 -0.7197805 -2.5684302 2
1.1117517 -0.71942604 -2.563074 2
1.1231341 -0.7184195 -2.5560145 2
1.1344967 -0.71741354 -2.548964 2
1.1458393 -0.71640825 -2.541922 2
1.157162 -0.7154035 -2.534889 2
1.1699516 -0.7157009 -2.5312366 2
1.1820076 -0.7153473 -2.5258937 2
1.1940637 -0.71499366 -2.520551 2
1.2068932 -0.71528995 -2.516881 2
1.220526 -0.7162353 -2.5148702 2
1.2334054 -0.7165301 -2.511178 2
1.2463046 -0.71682435 -2.5074768 2
1.2592239 -0.71711797 -2.5037668 2
1.2729865 -0.71805954 -2.5016985 2
1.286789 -0.71899986 -2.4996126 2
1.3006313 -0.71993905 -2.497509 2
1.3136604 -0.7202295 -2.4937503 2
1.3275726 -0.7211667 -2.4916158 2
1.3415248 -0.7221026 -2.4894633 2
1.3555169 -0.7230374 -2.4872935 2
1.3695489 -0.723971 -2.4851058 2
1.3827176 -0.72425735 -2.481285 2
1.3968195 -0.725189 -2.4790666 2
1.4109613 -0.72611934 -2.4768302 2
1.425143 -0.7270486 -2.4745762 2
1.4393647 -0.7279767 -2.4723043 2
1.4536262 -0.72890353 -2.470015 2
1.4679276 -0.72982925 -2.4677079 2
1.4812961 -0.73010975 -2.463799 2
1.4956673 -0.7310334 -2.461461 2
1.5090857 -0.73131245 -2.4575298 2
1.5235269 -0.73223406 -2.4551606 2
1.536995 -0.7325116 -2.4512076 2
1.5515062 -0.73343116 -2.4488077 2
1.5670899 -0.7349919 -2.4479475 2
1.5837766 -0.73719287 -2.4486141 2
1.59949 -0.7387498 -2.4476967 2
1.6142008 -0.73966354 -2.445208 2
1.6278785 -0.7399349 -2.441162 2
1.6415763 -0.74020576 -2.437107 2
1.6552941 -0.74047595 -2.4330435 2
1.6690317 -0.7407456 -2.4289708 2
1.6827893 -0.74101466 -2.4248893 2
1.6943215 -0.74000376 -2.4177635 2
1.7080991 -0.7402723 -2.4136732 2
1.720754 -0.73990107 -2.408065 2
1.7345616 -0.74016863 -2.4039614 2
1.7472265 -0.7397972 -2.3983488 2
1.761064 -0.74006385 -2.3942323 2
1.776104 -0.7409679 -2.3915977 2
1.791184 -0.7418708 -2.3889456 2
1.8063037 -0.7427725 -2.3862758 2
1.822676 -0.74431014 -2.3850665 2
1.8378857 -0.7452092 -2.3823566 2
1.8556001 -0.74738 -2.382568 2
1.8733946 -0.74954855 -2.3827434 2
1.8925211 -0.75235057 -2.384344 2
1.9180597 -0.7583276 -2.39318 2
1.9450701 -0.7649341 -2.403379 1
1.978712 -0.7747091 -2.4207156 1
0.60270524 -0.81179214 -2.9753606 1
0.60994697 -0.79655415 -2.927894 1
0.61756945 -0.7833539 -2.8862941 1
0.62792826 -0.7775862 -2.86561 1
0.6384208 -0.77249753 -2.8468783 1
0.64907676 -0.7680871 -2.8300858 2
0.6599262 -0.76435393 -2.8152194 2
0.67132217 -0.7619707 -2.8041341 2
0.68199193 -0.75824285 -2.7893472 2
0.6925619 -0.75451785 -2.7746046 2
0.7033852 -0.7514685 -2.7617614 2
0.7144917 -0.7490937 -2.7508044 2
0.7262845 -0.7480648 -2.7435665 2
0.7380574 -0.7470365 -2.7363377 2
0.7498102 -0.74600875 -2.7291176 2
0.76154315 -0.7449816 -2.7219064 2
0.7736691 -0.7446259 -2.7165327 2
0.7857951 -0.7442702 -2.711159 2
0.7987869 -0.7452551 -2.709425 2
0.8118187 -0.74623877 -2.7076733 2
0.8248905 -0.7472213 -2.7059038 2
0.8380021 -0.7482027 -2.7041166 2
0.8511536 -0.7491828 -2.702312 2
0.8643451 -0.7501618 -2.7004893 2
0.87708366 -0.7504712 -2.696856 2
0.88984215 -0.7507799 -2.6932135 2
0.90210783 -0.7504201 -2.687778 2
0.9143735 -0.7500603 -2.6823423 2
0.9266392 -0.74970055 -2.6769068 2
0.93836224 -0.7486737 -2.6697 2
0.9495125 -0.7469806 -2.6607351 2
0.96118546 -0.7459552 -2.6535506 2
0.9728385 -0.74493045 -2.6463747 2
0.9844717 -0.7439062 -2.6392078 2
0.9954922 -0.742217 -2.6303005 2
1.0064728 -0.74052894 -2.621411 2
1.0180261 -0.739507 -2.6142795 2
1.0295594 -0.73848575 -2.6071568 2
1.0410727 -0.737465 -2.6000428 2
1.0532087 -0.73710907 -2.5946646 2
1.0653446 -0.73675305 -2.5892866 2
1.0774806 -0.7363971 -2.5839083 2
1.0896164 -0.73604107 -2.5785303 2
1.1017524 -0.7356851 -2.573152 2
1.1138884 -0.7353291 -2.567774 2
1.1253219 -0.73431075 -2.5606954 2
1.1374478 -0.733955 -2.5553217 2
1.148129 -0.7322758 -2.546565 2
1.160235 -0.73192066 -2.5412002 2
1.172341 -0.73156554 -2.5358353 2
1.184447 -0.7312104 -2.5304704 2
1.196553 -0.73085535 -2.5251055 2
1.2094313 -0.7311605 -2.5214102 2
1.2223295 -0.73146516 -2.517706 2
1.23604 -0.73242897 -2.5156534 2
1.2481859 -0.7320727 -2.5102708 2
1.2619562 -0.73303473 -2.5081918 2
1.2757665 -0.73399556 -2.5060952 2
1.2896166 -0.73495525 -2.5039806 2
1.3035067 -0.73591375 -2.5018487 2
1.3165846 -0.73621315 -2.4980648 2
1.3305445 -0.7371696 -2.4959018 2
1.3445444 -0.7381249 -2.493721 2
1.3585842 -0.73907906 -2.4915226 2
1.3726639 -0.740032 -2.4893064 2
1.3858815 -0.74032724 -2.4854608 2
1.4000311 -0.7412782 -2.4832134 2
1.4142206 -0.7422279 -2.480949 2
1.42845 -0.74317646 -2.4786663 2
1.4427193 -0.7441239 -2.476366 2
1.4570286 -0.7450701 -2.4740481 2
1.4713777 -0.74601513 -2.4717126 2
1.484795 -0.7463045 -2.4677787 2
1.499214 -0.7472475 -2.4654121 2
1.5126811 -0.74753547 -2.4614558 2
1.5271701 -0.74847645 -2.4590583 2
1.5416988 -0.74941623 -2.456643 2
1.5562676 -0.7503548 -2.4542103 2
1.571908 -0.751945 -2.4533143 2
1.5886501 -0.7541858 -2.4539416 2
1.6044203 -0.7557722 -2.4529881 2
1.6170652 -0.75540125 -2.4473844 2
1.6307818 -0.7556819 -2.4433174 2
1.6456001 -0.75661314 -2.440774 2
1.6582749 -0.7562414 -2.435157 2
1.673153 -0.7571709 -2.4325871 2
1.6858479 -0.7567985 -2.4269614 2
1.6985427 -0.75642616 -2.4213355 2
1.7112375 -0.75605375 -2.4157097 2
1.7250739 -0.75633085 -2.4115896 2
1.7377788 -0.7559582 -2.4059596 2
1.7516451 -0.7562344 -2.4018261 2
1.7655313 -0.7565101 -2.397684 2
1.780619 -0.7574335 -2.3950214 2
1.7957467 -0.7583557 -2.3923407 2
1.8121157 -0.7599245 -2.3911219 2
1.8285446 -0.7614915 -2.3898764 2
1.8450333 -0.76305676 -2.3886044 2
1.8628134 -0.76526713 -2.3887718 2
1.8819145 -0.7681217 -2.3903656 2
1.9036182 -0.772266 -2.3948293 2
1.9305068 -0.77899003 -2.405042 1
1.9627002 -0.7882904 -2.4209507 1
1.9977555 -0.79887277 -2.4396143 1
0.6043024 -0.83360094 -2.9939916 1
0.61299896 -0.82155895 -2.9560008 1
0.6194509 -0.8047294 -2.9049485 1
0.6288098 -0.7961347 -2.8767042 1
0.63880545 -0.78960145 -2.8542023 1
0.64922583 -0.78444237 -2.835528 2
0.65981853 -0.77997154 -2.8187854 2
0.6712577 -0.77755594 -2.807692 2
0.68197286 -0.7737749 -2.7929032 2
0.69258815 -0.7699968 -2.7781587 2
0.70345575 -0.76690465 -2.7653105 2
0.7149675 -0.7651803 -2.756193 2
0.72643936 -0.76345706 -2.747093 2
0.7382531 -0.7624172 -2.7398496 2
0.7500471 -0.7613779 -2.732615 2
0.76182103 -0.7603392 -2.7253892 2
0.7739868 -0.7599823 -2.719998 2
0.7861527 -0.75962543 -2.7146063 2
0.7991823 -0.76062995 -2.7128484 2
0.81181 -0.7609529 -2.7092605 2
0.82490945 -0.7619553 -2.7074714 2
0.8380488 -0.76295656 -2.7056646 2
0.85169995 -0.76463616 -2.7056391 2
0.8654109 -0.766314 -2.7055874 2
0.87869 -0.7673112 -2.7037187 2
0.89100564 -0.76694995 -2.698261 2
0.90332115 -0.7665887 -2.6928031 2
0.9156368 -0.7662274 -2.6873455 2
0.9279524 -0.76586616 -2.6818876 2
0.93972623 -0.76482743 -2.6746619 2
0.9509287 -0.7631121 -2.6656814 2
0.9615295 -0.76072115 -2.6549594 2
0.97321355 -0.7596851 -2.6477735 2
0.9848777 -0.7586496 -2.6405964 2
0.99593043 -0.7569387 -2.6316824 2
1.0075446 -0.7559047 -2.6245272 2
1.0185274 -0.7541958 -2.6156442 2
1.0307132 -0.75383836 -2.6102438 2
1.0422677 -0.75280607 -2.6031153 2
1.0544435 -0.7524489 -2.5977197 2
1.0672708 -0.752766 -2.5940433 2
1.0787952 -0.75173455 -2.586928 2
1.0916425 -0.75205106 -2.5832427 2
1.1038283 -0.7516936 -2.5778425 2
1.1153228 -0.7506631 -2.5707405 2
1.1274986 -0.75030595 -2.5653448 2
1.1396745 -0.7499488 -2.559949 2
1.151129 -0.7489194 -2.5528648 2
1.1632949 -0.7485626 -2.5474734 2
1.1754608 -0.7482057 -2.5420818 2
1.1868755 -0.74717754 -2.5350153 2
1.1997926 -0.74749196 -2.531299 2
1.2119584 -0.7471351 -2.5259078 2
1.2249055 -0.7474487 -2.5221782 2
1.2378725 -0.74776167 -2.5184398 2
1.2508595 -0.74807405 -2.5146928 2
1.2646775 -0.7490554 -2.5125852 2
1.2785355 -0.7500356 -2.5104601 2
1.2924333 -0.7510146 -2.5083172 2
1.3063711 -0.75199246 -2.5061567 2
1.3203489 -0.75296915 -2.5039785 2
1.3343664 -0.75394464 -2.5017827 2
1.3484241 -0.754919 -2.499569 2
1.3616406 -0.75522465 -2.4957201 2
1.375768 -0.7561969 -2.4934754 2
1.3899354 -0.757168 -2.4912133 2
1.4032317 -0.7574713 -2.487329 2
1.4174689 -0.75844043 -2.485036 2
1.431746 -0.7594083 -2.4827247 2
1.446063 -0.760375 -2.4803963 2
1.46042 -0.76134056 -2.47805 2
1.4748169 -0.76230496 -2.475686 2
1.4882829 -0.7626033 -2.4717264 2
1.5027497 -0.7635656 -2.4693315 2
1.5172564 -0.7645268 -2.466919 2
1.5308022 -0.7648228 -2.462924 2
1.5453788 -0.7657819 -2.4604805 2
1.561016 -0.76740324 -2.459575 2
1.576713 -0.7690228 -2.458643 2
1.5924699 -0.7706407 -2.457684 2
1.607236 -0.7715942 -2.4551566 2
1.6220421 -0.7725466 -2.4526114 2
1.6347469 -0.7721739 -2.446981 2
1.6485323 -0.7724629 -2.4428802 2
1.6623377 -0.7727513 -2.4387703 2
1.676163 -0.7730391 -2.4346514 2
1.6900082 -0.7733263 -2.4305239 2
1.702753 -0.77295244 -2.424876 2
1.7154976 -0.7725786 -2.419228 2
1.7282424 -0.77220476 -2.4135802 2
1.7421376 -0.7724905 -2.4094305 2
1.7560526 -0.77277565 -2.405272 2
1.7699878 -0.77306026 -2.4011045 2
1.7851232 -0.77400297 -2.3984132 2
1.8002986 -0.7749445 -2.3957043 2
1.8179145 -0.7772012 -2.3959298 2
1.8356104 -0.7794555 -2.39612 2
1.8521656 -0.78104985 -2.3948078 2
1.8712413 -0.78395706 -2.3963943 2
1.8916572 -0.78751826 -2.3993952 2
1.9146934 -0.7923893 -2.405251 1
1.9416698 -0.7992248 -2.4153848 1
1.9790274 -0.8113025 -2.4369826 1
2.0142038 -0.82205755 -2.4555306 1
0.6058732 -0.8556592 -3.0125468 1
0.6162749 -0.8476133 -2.9858887 1
0.62293273 -0.8305289 -2.9348326 1
0.6305169 -0.816936 -2.8933878 1
0.639177 -0.80683005 -2.8614883 1
0.6487618 -0.7995118 -2.8371966 2
0.65970194 -0.7956723 -2.8223264 2
0.6708634 -0.79253006 -2.8093624 2
0.681614 -0.78869617 -2.7945762 2
0.6926056 -0.78555894 -2.7816875 2
0.7038684 -0.7831174 -2.7706833 2
0.7150713 -0.7806777 -2.7597053 2
0.7265853 -0.7789325 -2.750594 2
0.7384402 -0.777881 -2.743336 2
0.75027514 -0.7768302 -2.7360868 2
0.76249087 -0.77647185 -2.7306733 2
0.7742958 -0.77542186 -2.7234375 2
0.78650165 -0.7750638 -2.7180285 2
0.7991382 -0.7753969 -2.714433 2
0.8122355 -0.7764201 -2.7126377 2
0.8253727 -0.77744216 -2.7108245 2
0.8390105 -0.7791532 -2.7107942 2
0.85317886 -0.7815525 -2.712533 2
0.8674271 -0.7839494 -2.7142363 2
0.88175523 -0.78634393 -2.7159045 2
0.8941606 -0.78598 -2.7104068 2
0.906566 -0.7856161 -2.7049093 2
0.91845083 -0.7845638 -2.697638 2
0.93031573 -0.78351206 -2.6903758 2
0.9421606 -0.78246087 -2.6831222 2
0.95288444 -0.7800352 -2.6723566 2
0.9635484 -0.77761126 -2.6616175 2
0.97415257 -0.77518904 -2.6509051 2
0.9852772 -0.7734553 -2.641966 2
0.99695253 -0.77240914 -2.6347878 2
1.0080073 -0.77067745 -2.62588 2
1.0196326 -0.7696327 -2.6187239 2
1.0318584 -0.7692741 -2.6133058 2
1.0440842 -0.7689155 -2.607888 2
1.0563099 -0.76855683 -2.60247 2
1.0685357 -0.76819825 -2.597052 2
1.0807614 -0.7678396 -2.591634 2
1.0929872 -0.76748097 -2.5862162 2
1.1052129 -0.7671223 -2.5807984 2
1.1174387 -0.76676375 -2.5753803 2
1.1296644 -0.7664051 -2.5699625 2
1.1418902 -0.76604646 -2.5645444 2
1.1541159 -0.7656879 -2.5591266 2
1.1656115 -0.76464695 -2.552028 2
1.1778274 -0.7642886 -2.5466144 2
1.1900431 -0.76393026 -2.5412009 2
1.202259 -0.763572 -2.5357873 2
1.2152448 -0.76389474 -2.532037 2
1.2274705 -0.7635361 -2.526619 2
1.2404864 -0.763858 -2.5228553 2
1.2543222 -0.7648596 -2.5207329 2
1.2673879 -0.76518005 -2.516947 2
1.2812935 -0.76617956 -2.5147934 2
1.2952391 -0.76717794 -2.512622 2
1.3092246 -0.76817507 -2.5104332 2
1.32325 -0.7691711 -2.5082266 2
1.3373154 -0.7701659 -2.5060022 2
1.3514206 -0.7711596 -2.5037603 2
1.3655659 -0.77215207 -2.5015006 2
1.379751 -0.7731434 -2.499223 2
1.393976 -0.77413356 -2.496928 2
1.4073312 -0.77444553 -2.4930139 2
1.4216261 -0.7754336 -2.4906878 2
1.4359609 -0.77642053 -2.4883442 2
1.4503356 -0.7774063 -2.485983 2
1.4647503 -0.7783909 -2.4836035 2
1.4782451 -0.77869874 -2.4796276 2
1.4927297 -0.77968127 -2.4772177 2
1.5062745 -0.7799877 -2.4732194 2
1.5208288 -0.7809682 -2.4707785 2
1.5344235 -0.78127307 -2.4667583 2
1.5490477 -0.78225154 -2.4642863 2
1.5647315 -0.7839026 -2.463349 2
1.5804751 -0.7855519 -2.4623857 2
1.5962787 -0.7871995 -2.4613953 2
1.6110926 -0.78817236 -2.4588392 2
1.6248869 -0.7884714 -2.4547305 2
1.6387011 -0.7887699 -2.450613 2
1.6525352 -0.7890678 -2.446487 2
1.6652999 -0.78869337 -2.4408302 2
1.679164 -0.78899044 -2.4366906 2
1.6930481 -0.78928685 -2.432542 2
1.7058328 -0.7889118 -2.4268765 2
1.7186174 -0.78853685 -2.4212108 2
1.7314022 -0.7881618 -2.4155455 2
1.745336 -0.7884568 -2.4113748 2
1.75929 -0.7887512 -2.4071953 2
1.773264 -0.789045 -2.403007 2
1.7896165 -0.7906764 -2.4017737 2
1.8060288 -0.7923061 -2.4005136 2
1.8237002 -0.79460263 -2.4007 2
1.8414515 -0.79689676 -2.4008512 2
1.8592826 -0.7991885 -2.4009666 2
1.8784227 -0.8021456 -2.4025068 2
1.900141 -0.8064345 -2.406913 2
1.9244974 -0.81205344 -2.414159 1
1.9515516 -0.81900066 -2.4242182 1
2.0216677 -0.84087 -2.4612956 1
0.6079179 -0.8793804 -3.0348063 1
0.61873126 -0.8719225 -3.0100064 1
0.62610507 -0.8559966 -2.9627218 1
0.63387966 -0.8422012 -2.921262 1
0.64011526 -0.82559454 -2.872481 1
0.6485911 -0.81534886 -2.8407142 1
0.6595768 -0.81145626 -2.8258421 2
0.67046255 -0.8075666 -2.8110142 2
0.68124855 -0.8036798 -2.7962303 2
0.69227445 -0.8005001 -2.7833412 2
0.70357054 -0.79802656 -2.772333 2
0.71516657 -0.7962583 -2.7631924 2
0.7270923 -0.7951943 -2.7559068 2
0.7389982 -0.79413104 -2.7486298 2
0.75049436 -0.7923657 -2.7395337 2
0.76275 -0.79200613 -2.7341025 2
0.7745961 -0.7909446 -2.7268522 2
0.78684175 -0.7905854 -2.7214253 2
0.79951715 -0.79092765 -2.717809 2
0.81309175 -0.7926717 -2.7177956 2
0.827176 -0.7951148 -2.719557 2
0.8408804 -0.79685503 -2.7194862 2
0.8555839 -0.7999941 -2.722974 2
0.8699076 -0.8024303 -2.7246294 2
0.883332 -0.8034646 -2.722682 2
0.89679635 -0.80449784 -2.7207165 2
0.9097911 -0.8048307 -2.7169585 2
0.92124736 -0.8030665 -2.7078803 2
0.9331932 -0.802002 -2.7005856 2
0.945119 -0.8009381 -2.6932998 2
0.9570248 -0.7998748 -2.686023 2
0.9677919 -0.79741675 -2.675249 2
0.9779297 -0.79426306 -2.6627533 2
0.98798764 -0.79111177 -2.650293 2
0.9985552 -0.7886596 -2.6396077 2
1.009662 -0.7869056 -2.6306841 2
1.0213383 -0.78584903 -2.623509 2
1.033614 -0.78548896 -2.618069 2
1.0458897 -0.78512883 -2.6126287 2
1.0581653 -0.78476876 -2.6071887 2
1.0697918 -0.78371364 -2.6000357 2
1.0820575 -0.78335387 -2.5946 2
1.0943232 -0.78299403 -2.5891645 2
1.107268 -0.7833284 -2.5854287 2
1.1195437 -0.78296834 -2.5799885 2
1.1318194 -0.7826082 -2.5745485 2
1.144095 -0.78224814 -2.5691085 2
1.1556516 -0.7811951 -2.5619864 2
1.1679173 -0.7808353 -2.5565507 2
1.1801829 -0.7804755 -2.551115 2
1.1916995 -0.7794236 -2.5440106 2
1.2047143 -0.7797559 -2.5402439 2
1.217749 -0.78008765 -2.5364683 2
1.2300246 -0.7797275 -2.5310283 2
1.2430892 -0.7800584 -2.5272393 2
1.2569728 -0.7810793 -2.5250883 2
1.2700872 -0.78140867 -2.5212772 2
1.2848595 -0.78311753 -2.520733 2
1.2988628 -0.7841349 -2.518529 2
1.312906 -0.7851511 -2.516307 2
1.3269892 -0.7861662 -2.5140676 2
1.3402534 -0.78649116 -2.5101902 2
1.3544064 -0.7875042 -2.5079198 2
1.3685993 -0.788516 -2.5056317 2
1.382832 -0.78952664 -2.503326 2
1.3971049 -0.7905361 -2.5010023 2
1.4114175 -0.79154444 -2.498661 2
1.4248514 -0.79186445 -2.4947085 2
1.4392339 -0.7928707 -2.4923363 2
1.4536564 -0.79387575 -2.4899464 2
1.4681188 -0.7948797 -2.4875388 2
1.4816624 -0.7951965 -2.4835377 2
1.495226 -0.7955127 -2.4795277 2
1.5097883 -0.7965137 -2.477076 2
1.5234017 -0.79682845 -2.473044 2
1.5370352 -0.79714257 -2.4690027 2
1.5527058 -0.79882514 -2.4680605 2
1.5684361 -0.80050594 -2.4670918 2
1.5842264 -0.80218494 -2.4660964 2
1.5990381 -0.8031786 -2.4635344 2
1.6149381 -0.80485445 -2.4624903 2
1.6287812 -0.80516243 -2.4583564 2
1.6426443 -0.8054699 -2.4542136 2
1.6554489 -0.8050943 -2.4485393 2
1.6693419 -0.8054008 -2.4443831 2
1.6832547 -0.8057068 -2.4402184 2
1.6960794 -0.8053306 -2.434535 2
1.7100222 -0.8056357 -2.430357 2
1.7217284 -0.80457824 -2.4231687 2
1.7356913 -0.8048827 -2.4189816 2
1.7496742 -0.8051866 -2.4147859 2
1.7636769 -0.80548996 -2.410581 2
1.7788678 -0.8064725 -2.4078507 2
1.7940986 -0.8074539 -2.4051027 2
1.8117459 -0.8097925 -2.4052851 2
1.8294728 -0.81212884 -2.4054325 2
1.8472795 -0.8144628 -2.4055443 2
1.8651662 -0.8167944 -2.4056208 2
1.8868169 -0.8211578 -2.4100313 2
1.9086074 -0.8255171 -2.41438 1
1.9355298 -0.83258224 -2.4244578 1
0.6089362 -0.90052426 -3.04943 1
0.6281647 -0.8789515 -2.9829922 1
0.6363687 -0.865671 -2.9434083 1
0.6424803 -0.8481052 -2.8927689 1
0.6490094 -0.8327005 -2.847936 1
0.6594428 -0.8273234 -2.8293324 2
0.6703739 -0.82338053 -2.8145025 2
0.6812053 -0.81944066 -2.799717 2
0.69227564 -0.81621814 -2.7868226 2
0.70361483 -0.81371224 -2.7758062 2
0.7152529 -0.81192195 -2.7666545 2
0.72721976 -0.8108465 -2.759354 2
0.7391666 -0.80977166 -2.7520626 2
0.75109357 -0.80869734 -2.74478 2
0.76300055 -0.8076236 -2.7375062 2
0.7752961 -0.80726296 -2.7320573 2
0.78717315 -0.80619013 -2.724797 2
0.800316 -0.8072535 -2.722967 2
0.8148143 -0.8104504 -2.7265275 2
0.8294126 -0.81364435 -2.7300436 2
0.8441105 -0.8168354 -2.7335157 1
0.8598453 -0.82144487 -2.7405226 1
0.8771553 -0.8281815 -2.7528229 1
0.8917341 -0.83065164 -2.7543507 1
0.8974209 -0.82034266 -2.7238708 1
0.9119797 -0.82281333 -2.7254076 1
0.92661834 -0.82528174 -2.7269087 1
0.9376383 -0.82278514 -2.716034 1
0.94967496 -0.8217076 -2.7087026 1
0.96224 -0.8213391 -2.7031343 1
0.9731301 -0.8188463 -2.692317 2
0.9833921 -0.81564754 -2.6797807 2
0.9924176 -0.81103617 -2.6637983 2
1.0019116 -0.80713546 -2.6496053 2
1.0119041 -0.80394465 -2.6371887 2
1.0236415 -0.8028759 -2.62999 2
1.0353588 -0.80180776 -2.6228004 2
1.0470562 -0.8007402 -2.6156194 2
1.0593717 -0.8003789 -2.6101618 2
1.0716873 -0.80001765 -2.604704 2
1.0840029 -0.7996564 -2.5992463 2
1.0969865 -0.79999995 -2.5954895 2
1.1093122 -0.79963845 -2.5900273 2
1.1216377 -0.7992769 -2.5845652 2
1.1332653 -0.7982114 -2.5774152 2
1.1448728 -0.79714644 -2.570274 2
1.1571784 -0.7967855 -2.5648208 2
1.169484 -0.7964245 -2.5593677 2
1.1817896 -0.79606354 -2.5539143 2
1.1940951 -0.7957026 -2.548461 2
1.2071587 -0.7960438 -2.544669 2
1.2194743 -0.79568255 -2.5392113 2
1.2325678 -0.7960229 -2.5354059 2
1.246469 -0.797064 -2.5332396 2
1.2596124 -0.7974029 -2.5294123 2
1.2735835 -0.798442 -2.527215 2
1.2875947 -0.79947984 -2.525 2
1.3016456 -0.8005166 -2.5227675 2
1.3165743 -0.802252 -2.5221431 2
1.3307151 -0.8032861 -2.519871 2
1.3440381 -0.8036197 -2.5159638 2
1.3582488 -0.8046517 -2.5136604 2
1.3724995 -0.80568254 -2.5113394 2
1.3867899 -0.80671227 -2.5090008 2
1.4011204 -0.80774075 -2.5066445 2
1.4145831 -0.8080703 -2.5026755 2
1.4289834 -0.80909675 -2.500288 2
1.4424961 -0.8094248 -2.4962971 2
1.4569662 -0.81044924 -2.4938788 2
1.4705287 -0.8107758 -2.4898655 2
1.4850688 -0.8117982 -2.4874163 2
1.4986812 -0.81212336 -2.4833808 2
1.5123136 -0.8124479 -2.4793367 2
1.5269535 -0.8134673 -2.4768434 2
1.5406357 -0.81379044 -2.472777 2
1.5553454 -0.8148078 -2.4702525 2
1.5711124 -0.8165186 -2.4692566 2
1.5869393 -0.8182277 -2.468234 2
1.6028261 -0.81993496 -2.4671853 2
1.6177254 -0.8209468 -2.4645767 2
1.6326647 -0.82195747 -2.4619508 2
1.6465765 -0.8222738 -2.4577827 2
1.659431 -0.82189673 -2.452086 2
1.6733729 -0.8222122 -2.4479048 2
1.6862373 -0.82183486 -2.4422038 2
1.6991018 -0.8214575 -2.436503 2
1.7119663 -0.82108015 -2.4308019 2
1.725958 -0.82139415 -2.4265985 2
1.7399696 -0.82170755 -2.4223862 2
1.7528541 -0.82132965 -2.4166765 2
1.7680528 -0.8223327 -2.4139352 2
1.7832915 -0.8233346 -2.4111762 2
1.7985699 -0.8243353 -2.4083998 2
1.8162626 -0.82671404 -2.4085476 2
1.8340352 -0.8290904 -2.4086602 2
1.8518875 -0.8314645 -2.4087372 2
1.8710366 -0.834525 -2.4102368 2
1.8915126 -0.83827096 -2.4131455 1
1.9158193 -0.84407794 -2.420348 1
1.9440464 -0.8519432 -2.4318044 1
0.609437 -0.9204209 -3.060223 1
0.6217409 -0.91638595 -3.0448031 1
0.6291245 -0.8992689 -2.9956808 1
0.63771594 -0.8865253 -2.9579844 1
0.64452916 -0.8701598 -2.9111085 1
0.65001 -0.851629 -2.8588426 1
0.65960765 -0.84399945 -2.8346546 2
0.6702765 -0.8392777 -2.8179657 2
0.6811533 -0.83528465 -2.8031783 2
0.6922679 -0.8320194 -2.790279 2
0.70399797 -0.83020574 -2.7810936 2
0.7156882 -0.82839316 -2.7719262 2
0.72733843 -0.82658184 -2.7627761 2
0.7397039 -0.82621914 -2.7572963 2
0.7516818 -0.82513297 -2.7499948 2
0.76363975 -0.8240474 -2.7427022 2
0.77598524 -0.8236853 -2.737231 2
0.78874826 -0.82404566 -2.7335687 2
0.8023863 -0.82585 -2.7335052 2
0.8182714 -0.83126247 -2.7424135 1
0.83521116 -0.8381136 -2.7548413 1
0.9335128 -0.8499261 -2.751148 1
0.9462775 -0.8495517 -2.745491 1
0.95796776 -0.84773916 -2.7363236 1
0.9657872 -0.84089655 -2.714917 1
0.9756559 -0.8369331 -2.7005763 1
0.9859922 -0.83369064 -2.6880217 2
0.9956714 -0.8297327 -2.673765 2
1.0058378 -0.82649535 -2.6612856 2
1.0159245 -0.82326025 -2.6488419 2
1.0271456 -0.8214615 -2.639882 2
1.0383267 -0.8196639 -2.6309402 2
1.0500951 -0.8185839 -2.6237314 2
1.0618435 -0.81750447 -2.6165316 2
1.074219 -0.8171415 -2.6110473 2
1.0865945 -0.8167784 -2.6055632 2
1.0996369 -0.8171306 -2.6017766 2
1.1113453 -0.81605244 -2.5945945 2
1.1237208 -0.8156894 -2.5891104 2
1.1347023 -0.81389767 -2.5802567 2
1.1470579 -0.8135352 -2.5747814 2
1.1594133 -0.8131728 -2.569306 2
1.171042 -0.8120969 -2.562159 2
1.1833875 -0.8117348 -2.556688 2
1.1964799 -0.8120855 -2.5528796 2
1.2095922 -0.8124357 -2.5490623 2
1.2227244 -0.81278527 -2.545236 2
1.2358767 -0.81313425 -2.5414011 2
1.2498357 -0.81419444 -2.539202 2
1.2638346 -0.8152534 -2.5369854 2
1.2778734 -0.8163112 -2.534751 2
1.2919521 -0.8173678 -2.5324988 2
1.3060708 -0.8184233 -2.5302289 2
1.3202294 -0.81947756 -2.5279415 2
1.334428 -0.82053065 -2.5256362 2
1.3486664 -0.8215826 -2.5233133 2
1.3629447 -0.8226334 -2.5209727 2
1.377263 -0.82368296 -2.5186145 2
1.3916212 -0.8247314 -2.5162385 2
1.4051228 -0.82507014 -2.5122485 2
1.4186443 -0.82540834 -2.50825 2
1.4331023 -0.8264538 -2.5058298 2
1.4466738 -0.8267905 -2.501809 2
1.4612015 -0.82783395 -2.4993577 2
1.4748229 -0.8281692 -2.4953148 2
1.4894207 -0.8292106 -2.4928327 2
1.5030918 -0.82954437 -2.4887676 2
1.516783 -0.82987756 -2.484694 2
1.5324669 -0.83162194 -2.483724 2
1.5472143 -0.83265895 -2.4811754 2
1.5609953 -0.8329895 -2.4770617 2
1.5758126 -0.8340245 -2.4744825 2
1.5906698 -0.8350583 -2.4718852 2
1.6076394 -0.8374997 -2.4723392 2
1.6225965 -0.83853054 -2.4696977 2
1.6365372 -0.8388564 -2.4655132 2
1.6494316 -0.83847815 -2.4597988 2
1.6634022 -0.8388032 -2.4556012 2
1.6773928 -0.8391276 -2.4513946 2
1.689211 -0.83804613 -2.4441638 2
1.7032216 -0.8383699 -2.4399486 2
1.716136 -0.8379911 -2.4342256 2
1.7290504 -0.8376123 -2.4285023 2
1.7431009 -0.8379349 -2.4242692 2
1.7571714 -0.838257 -2.4200273 2
1.7712617 -0.83857846 -2.4157767 2
1.7865381 -0.83959997 -2.4129937 2
1.8030304 -0.8413206 -2.4116654 2
1.8207686 -0.8437395 -2.4117785 2
1.8385866 -0.846156 -2.4118564 2
1.8552784 -0.8478708 -2.4104395 2
1.875678 -0.85168123 -2.4133604 2
1.8974233 -0.856187 -2.417678 1
1.9230157 -0.86278427 -2.4262714 1
0.6094266 -0.93900806 -3.0672047 1
0.62179595 -0.9349194 -3.051774 1
0.6300649 -0.9197735 -3.008313 1
0.6379345 -0.90463936 -2.9650285 1
0.6454051 -0.8895169 -2.9219213 1
0.6515864 -0.87219673 -2.8734157 1
0.66006833 -0.86151564 -2.8417993 2
0.67080367 -0.85672975 -2.8251028 2
0.68141913 -0.85194737 -2.8084595 2
0.6925881 -0.8486391 -2.7955506 2
0.7040237 -0.84606814 -2.7845132 2
0.7161125 -0.8449684 -2.7771661 2
0.7278148 -0.84313476 -2.7680006 2
0.7398537 -0.8420365 -2.7606757 2
0.75225914 -0.84167254 -2.755178 2
0.76466453 -0.84130865 -2.7496805 2
0.7774763 -0.841678 -2.7459927 2
0.7907245 -0.84277976 -2.7441013 2
0.8061446 -0.8475436 -2.7511966 2
0.97313774 -0.8657452 -2.7388775 1
0.9787227 -0.85589427 -2.7105346 1
0.98744476 -0.85042226 -2.6927407 2
0.9983314 -0.8478674 -2.6819465 2
1.0091583 -0.8453143 -2.671179 2
1.0199252 -0.842763 -2.660438 2
1.0312383 -0.84094083 -2.651445 2
1.0425115 -0.8391198 -2.6424694 2
1.0537447 -0.83729994 -2.6335118 2
1.065574 -0.8362078 -2.6262796 2
1.0773834 -0.8351162 -2.6190565 2
1.0898287 -0.8347511 -2.6135411 2
1.1022741 -0.8343861 -2.608026 2
1.1140435 -0.8332957 -2.6008205 2
1.1257929 -0.8322059 -2.5936236 2
1.1375225 -0.8311166 -2.5864358 2
1.149232 -0.830028 -2.579257 2
1.1616374 -0.8296641 -2.5737593 2
1.1740428 -0.8293002 -2.5682619 2
1.1864482 -0.82893634 -2.5627644 2
1.1995994 -0.8292957 -2.558926 2
1.2127705 -0.8296545 -2.555079 2
1.2259616 -0.83001274 -2.5512233 2
1.2391726 -0.83037037 -2.5473585 2
1.2531892 -0.83144957 -2.5451267 2
1.2672459 -0.8325276 -2.542877 2
1.282148 -0.8343259 -2.5422425 2
1.2962945 -0.8354013 -2.539953 2
1.3104807 -0.8364755 -2.537646 2
1.3255426 -0.8382692 -2.5369408 2
1.3389732 -0.83862036 -2.5329788 2
1.3532794 -0.83969104 -2.5306184 2
1.3667598 -0.8400408 -2.5266345 2
1.3811358 -0.84110945 -2.5242434 2
1.3955517 -0.8421769 -2.5218344 2
1.409112 -0.8425243 -2.5178149 2
1.4235977 -0.8435897 -2.5153751 2
1.437208 -0.8439356 -2.5113335 2
1.452689 -0.845717 -2.5104425 2
1.4672946 -0.8467789 -2.5079496 2
1.4819399 -0.84783965 -2.505439 2
1.4975806 -0.84961635 -2.5044773 2
1.5103853 -0.8492408 -2.498803 2
1.5251405 -0.8502982 -2.4962437 2
1.5399356 -0.8513546 -2.4936666 2
1.5547706 -0.8524098 -2.4910722 2
1.5706508 -0.85417944 -2.4900043 2
1.5845605 -0.8545166 -2.4858298 2
1.5984901 -0.85485315 -2.481647 2
1.61451 -0.85661876 -2.480517 2
1.6284996 -0.8569535 -2.4763074 2
1.642509 -0.85728776 -2.4720888 2
1.6554734 -0.8569075 -2.4663434 2
1.6684376 -0.85652715 -2.4605985 2
1.681402 -0.8561469 -2.454853 2
1.6932712 -0.85505354 -2.4476032 2
1.7062255 -0.85467356 -2.4418626 2
1.7202948 -0.85500604 -2.4376175 2
1.7332591 -0.85462576 -2.4318724 2
1.7473583 -0.85495734 -2.427614 2
1.7603326 -0.85457677 -2.4218643 2
1.7756168 -0.8556187 -2.4190707 2
1.7921058 -0.85737056 -2.417733 2
1.8086548 -0.8591206 -2.4163687 2
1.8252635 -0.86086893 -2.414978 2
1.843127 -0.8633256 -2.415021 2
1.8610703 -0.86577994 -2.4150286 2
1.8815233 -0.86965096 -2.417904 1
1.9045454 -0.87493694 -2.4236202 1
1.9314318 -0.88234514 -2.4335933 1
0.60915756 -0.9569716 -3.072271 1
0.6213266 -0.9520815 -3.0549612 1
0.629923 -0.9374742 -3.0134141 1
0.63814 -0.92287815 -2.972035 1
0.64597785 -0.9082932 -2.9308238 1
0.6534364 -0.8937193 -2.889781 1
0.66112685 -0.8806497 -2.8526075 2
0.67100203 -0.8735603 -2.8303556 2
0.681674 -0.86871403 -2.813709 2
0.6928973 -0.86536276 -2.8007905 2
0.70473146 -0.8635045 -2.7915738 2
0.7161704 -0.8609024 -2.780546 2
0.7282803 -0.85979164 -2.7731931 2
0.74037015 -0.8586815 -2.7658494 2
0.7532108 -0.85906035 -2.762145 2
0.76607144 -0.85943866 -2.758432 2
0.778952 -0.8598163 -2.7547102 2
0.79309857 -0.8624235 -2.7563858 2
0.8073249 -0.8650283 -2.7580261 1
0.99284136 -0.87243044 -2.7095785 1
1.0038512 -0.8698409 -2.6987407 2
1.0124612 -0.86429965 -2.681022 2
1.0233113 -0.8617148 -2.670255 2
1.0353112 -0.86060727 -2.662951 2
1.0472914 -0.85950035 -2.6556556 2
1.0586267 -0.8576568 -2.64666 2
1.069922 -0.8558144 -2.637682 2
1.0818223 -0.85470974 -2.630422 2
1.0937026 -0.85360575 -2.623171 2
1.1055629 -0.8525023 -2.615929 2
1.1174033 -0.8513995 -2.6086955 2
1.1292237 -0.8502972 -2.6014712 2
1.1410241 -0.84919554 -2.5942554 2
1.1528046 -0.8480944 -2.5870488 2
1.1645652 -0.8469939 -2.5798507 2
1.1777551 -0.8473625 -2.5759916 2
1.1902305 -0.8469966 -2.5704632 2
1.204195 -0.84809804 -2.568247 2
1.2174449 -0.8484649 -2.5643616 2
1.2307147 -0.8488312 -2.560467 2
1.2447791 -0.8499297 -2.5582068 2
1.2580988 -0.8502945 -2.5542903 2
1.272233 -0.85139096 -2.5519989 2
1.2864072 -0.85248625 -2.54969 2
1.3014358 -0.85431194 -2.5489886 2
1.3156998 -0.8554046 -2.5466397 2
1.3300037 -0.8564961 -2.5442731 2
1.3443476 -0.8575864 -2.541889 2
1.3578769 -0.8579451 -2.5378795 2
1.3722906 -0.85903335 -2.5354645 2
1.3867443 -0.8601204 -2.5330317 2
1.4012377 -0.86120635 -2.530581 2
1.4157712 -0.8622911 -2.528113 2
1.4303446 -0.86337465 -2.525627 2
1.4449579 -0.8644571 -2.5231235 2
1.459611 -0.8655383 -2.520602 2
1.4752386 -0.86734647 -2.5196352 2
1.4918702 -0.86988074 -2.5202098 2
1.5066731 -0.87095755 -2.517622 2
1.5244086 -0.87421495 -2.5196934 2
1.5461407 -0.88037723 -2.5279384 1
1.5651 -0.8843543 -2.5314536 1
1.5811964 -0.8861487 -2.530279 1
1.5923321 -0.884311 -2.5213718 1
1.5983572 -0.8788456 -2.5047984 1
1.6103872 -0.87773716 -2.4974809 1
1.6244653 -0.8780797 -2.4932284 2
1.6375195 -0.8776968 -2.4874432 2
1.6495196 -0.87658924 -2.4801393 2
1.6614997 -0.8754823 -2.472844 2
1.6734599 -0.87437594 -2.4655576 2
1.686484 -0.87399393 -2.4597857 2
1.6984142 -0.87288845 -2.4525127 2
1.7114284 -0.8725067 -2.4467454 2
1.7233287 -0.871402 -2.4394855 2
1.7374568 -0.8717432 -2.4352107 2
1.750471 -0.87136143 -2.4294434 2
1.7634852 -0.87097967 -2.423676 2
1.7788072 -0.8720413 -2.4208584 2
1.7953327 -0.8738231 -2.4194934 2
1.8130921 -0.8763243 -2.419568 2
1.8297476 -0.8781023 -2.4181457 2
1.8476566 -0.8805991 -2.418154 2
1.8656454 -0.88309354 -2.4181268 2
1.8885691 -0.88846534 -2.4238577 1
1.9140999 -0.8952718 -2.4324055 1
1.9422976 -0.903511 -2.4437437 1
0.608633 -0.9742804 -3.0754318 1
0.62084854 -0.9693267 -3.0581234 1
0.6297701 -0.95527893 -3.0184836 1
0.6380578 -0.94048387 -2.9771426 1
0.64625084 -0.9264574 -2.9378257 1
0.65467346 -0.91395605 -2.9023724 1
0.6621679 -0.89995015 -2.8633654 1
0.6708752 -0.88973814 -2.8337336 2
0.681918 -0.8855847 -2.818927 2
0.6928612 -0.88143426 -2.8041646 2
0.70473754 -0.8795541 -2.7949367 2
0.71657395 -0.8776751 -2.785726 2
0.7287348 -0.8765525 -2.7783544 2
0.7408756 -0.87543046 -2.7709916 2
0.7537651 -0.87581825 -2.767262 2
0.7666746 -0.8762055 -2.7635236 2
0.78162515 -0.88036233 -2.7687936 2
0.79379594 -0.8792394 -2.7614174 1
1.0174981 -0.8856976 -2.6959856 1
1.029649 -0.8845753 -2.6886184 2
1.04178 -0.88345355 -2.6812599 2
1.0526632 -0.88083667 -2.6704893 2
1.0647342 -0.8797167 -2.6631572 2
1.0748839 -0.87635535 -2.6507292 2
1.0868851 -0.8752374 -2.6434283 2
1.0982126 -0.8733734 -2.6344433 2
1.1101638 -0.8722569 -2.6271646 2
1.1220951 -0.871141 -2.6198945 2
1.1340065 -0.87002575 -2.6126335 2
1.1452042 -0.8681655 -2.603706 2
1.1570656 -0.86705166 -2.596467 2
1.1703343 -0.8674283 -2.5925694 2
1.1828995 -0.86705977 -2.587001 2
1.1961981 -0.8674356 -2.5830903 2
1.2102603 -0.86855483 -2.5808237 2
1.2236089 -0.86892915 -2.5768907 2
1.2369775 -0.8693029 -2.5729487 2
1.250366 -0.8696761 -2.568998 2
1.262991 -0.86930573 -2.5634034 2
1.2764093 -0.869678 -2.5594394 2
1.2906512 -0.8707921 -2.5570931 2
1.304933 -0.8719049 -2.5547292 2
1.3192546 -0.87301666 -2.5523474 2
1.3344496 -0.8748686 -2.5515614 2
1.3480177 -0.87523645 -2.5475311 2
1.3633125 -0.8770855 -2.5467007 2
1.3778039 -0.8781922 -2.544244 2
1.3932085 -0.880038 -2.543365 2
1.4077896 -0.8811421 -2.5408683 2
1.4224107 -0.88224494 -2.538354 2
1.4370717 -0.88334674 -2.535822 2
1.4517727 -0.8844473 -2.5332723 2
1.4674367 -0.8862855 -2.5322783 2
1.4850271 -0.88959897 -2.5343957 2
1.5027171 -0.8929095 -2.536469 2
1.5233666 -0.89843094 -2.5431786 1
1.5480282 -0.90689826 -2.55604 1
1.5729294 -0.91535854 -2.5687957 1
1.5941375 -0.92086357 -2.5752575 1
1.6115333 -0.92341685 -2.5754786 1
1.6270027 -0.9244949 -2.5725884 1
1.6344078 -0.9196823 -2.5574114 1
1.6335089 -0.90898615 -2.530054 1
1.6385287 -0.90271175 -2.511969 1
1.6506895 -0.90158916 -2.5045974 1
1.6607245 -0.8989971 -2.4942026 1
1.6696367 -0.89567214 -2.4823232 2
1.6806148 -0.8938183 -2.4734929 2
1.6926359 -0.8926998 -2.4661832 2
1.7035443 -0.89084804 -2.457384 2
1.7166183 -0.89046454 -2.45159 2
1.7285795 -0.8893478 -2.4443069 2
1.7405208 -0.88823164 -2.4370325 2
1.7547077 -0.88858134 -2.4327278 2
1.7677718 -0.88819814 -2.4269385 2
1.7831414 -0.88927907 -2.4240925 2
1.8008765 -0.8918224 -2.4241633 2
1.8175186 -0.89363194 -2.4227357 2
1.8342205 -0.8954397 -2.4212818 2
1.8521751 -0.8979766 -2.4212556 2
1.8702096 -0.90051115 -2.4211936 2
1.8955996 -0.9074253 -2.4297674 1
1.9199667 -0.91360354 -2.436812 1
0.6080996 -0.99167234 -3.0785675 1
0.62010825 -0.9858863 -3.0593934 1
0.62960625 -0.9731876 -3.0235217 1
0.6382382 -0.9589618 -2.984076 1
0.6465107 -0.94474643 -2.9447896 1
0.65559745 -0.9336123 -2.9130583 1
0.6637981 -0.9209516 -2.8777616 1
0.6716794 -0.90830034 -2.8426063 2
0.6821511 -0.90255934 -2.8241134 2
0.6931495 -0.8983554 -2.8093448 2
0.7047347 -0.89568686 -2.798274 2
0.7169665 -0.89455175 -2.7908745 2
0.7291783 -0.8934173 -2.783484 2
0.7417434 -0.8930487 -2.7779157 2
0.75430846 -0.89268017 -2.7723472 2
0.76805305 -0.89460576 -2.772193 2
0.78347015 -0.89958733 -2.7792132 2
1.0500283 -0.9088459 -2.704622 1
1.0604619 -0.90543485 -2.692083 1
1.0689474 -0.8997521 -2.67447 2
1.0791913 -0.89634657 -2.6620147 2
1.0919261 -0.895973 -2.6563714 2
1.1040082 -0.8948424 -2.649038 2
1.1160704 -0.8937123 -2.6417139 2
1.1281126 -0.8925828 -2.6343982 2
1.1401348 -0.8914539 -2.6270916 2
1.152137 -0.89032555 -2.619794 2
1.1641194 -0.8891978 -2.612505 2
1.1767942 -0.888826 -2.606888 2
1.1901915 -0.88920933 -2.6029298 2
1.2043414 -0.89034677 -2.600617 2
1.2185311 -0.891483 -2.5982864 2
1.2320083 -0.89186394 -2.5942929 2
1.2455056 -0.8922443 -2.5902905 1
1.2590227 -0.892624 -2.5862792 2
1.2717774 -0.8922499 -2.5806267 1
1.2845321 -0.89187574 -2.5749745 2
1.2972867 -0.8915016 -2.569322 2
1.3108538 -0.8918799 -2.5652888 2
1.3244408 -0.89225763 -2.5612464 2
1.3388801 -0.8933866 -2.5588055 2
1.3533593 -0.8945144 -2.5563467 2
1.3687307 -0.8963922 -2.5554714 2
1.3824375 -0.8967664 -2.551376 2
1.3961642 -0.89714 -2.547272 2
1.4116752 -0.8990138 -2.5463347 2
1.4281384 -0.90163594 -2.5469546 2
1.4464856 -0.9057553 -2.5506976 2
1.460392 -0.90612364 -2.5465136 2
1.4761626 -0.9079898 -2.5454617 2
1.4929252 -0.91060317 -2.5459487 2
1.5116516 -0.91471136 -2.5495234 2
1.5362103 -0.92330605 -2.562387 1
1.5667807 -0.936382 -2.5844598 1
1.5928503 -0.9457086 -2.5986328 1
1.6142694 -0.9512904 -2.604972 1
1.6328722 -0.954626 -2.6066225 1
1.6525768 -0.9587055 -2.6097636 1
1.6693653 -0.9605418 -2.6082604 1
1.6811042 -0.95864505 -2.5991006 1
1.6814522 -0.94854337 -2.5732205 1
1.6700801 -0.9302468 -2.5307665 1
1.671903 -0.9216545 -2.5081906 1
1.6809394 -0.9182844 -2.4962704 1
1.6898959 -0.91491663 -2.4843855 1
1.6998543 -0.91229576 -2.4740357 2
1.7108446 -0.9104209 -2.4652076 2
1.721795 -0.9085471 -2.456397 2
1.7327055 -0.90667456 -2.4476042 2
1.7446978 -0.90554655 -2.4403107 2
1.7578018 -0.90516216 -2.4345036 2
1.7720474 -0.90552056 -2.4301696 2
1.7874649 -0.9066208 -2.427295 2
1.8040836 -0.9084621 -2.425867 2
1.8219341 -0.9110435 -2.425872 2
1.8398643 -0.9136226 -2.4258418 2
1.8578743 -0.9161993 -2.425776 2
1.8795689 -0.9209967 -2.4300144 1
1.9026148 -0.92653084 -2.4356327 1
1.9209343 -0.9290985 -2.43543 1
0.6068305 -1.006809 -3.0760741 1
0.6193614 -1.0025084 -3.0606446 1
0.6294315 -0.99120027 -3.0285282 1
0.63786066 -0.97600716 -2.9872627 1
0.6461929 -0.9616036 -2.9480155 1
0.65591943 -0.9518787 -2.920002 1
0.6651042 -0.9413833 -2.8902533 1
0.67309284 -0.928563 -2.8551087 2
0.6830175 -0.9211923 -2.8329332 2
0.69375914 -0.9161574 -2.8163214 2
0.70506537 -0.9126793 -2.80341 2
0.7173481 -0.9115324 -2.7959914 2
0.7292489 -0.90961003 -2.786767 2
0.74222594 -0.910016 -2.7829914 2
0.7556051 -0.9111968 -2.781013 2
0.7698083 -0.91392666 -2.7826197 2
0.78409135 -0.91665417 -2.7841911 1
1.0743842 -0.9215115 -2.6891255 1
1.0841106 -0.9172931 -2.6749387 2
1.0969453 -0.9169166 -2.669251 2
1.1091282 -0.9157726 -2.661877 2
1.1232759 -0.91693085 -2.6595578 2
1.1354489 -0.91578716 -2.6521878 2
1.147602 -0.914644 -2.644827 2
1.1597351 -0.9135015 -2.6374748 2
1.1725496 -0.9131256 -2.631796 2
1.1853642 -0.9127497 -2.626117 2
1.1989002 -0.9131393 -2.6220937 1
1.2131876 -0.9142934 -2.6197128 1
1.2275149 -0.9154464 -2.617314 1
1.2411307 -0.9158336 -2.6132553 1
1.2547666 -0.91622025 -2.6091878 1
1.267651 -0.9158423 -2.603478 1
1.2797542 -0.9147006 -2.5961392 1
1.2918373 -0.91355956 -2.5888093 1
1.3039006 -0.9124191 -2.581488 2
1.3159438 -0.9112792 -2.5741756 2
1.3296096 -0.91166496 -2.5700948 2
1.3432953 -0.9120501 -2.5660052 2
1.3595245 -0.9147206 -2.5667143 1
1.3749824 -0.916627 -2.5657897 1
1.3922224 -0.92005444 -2.568026 1
1.4104334 -0.92423993 -2.5718071 1
1.4261209 -0.92613965 -2.570781 1
1.4418682 -0.9280376 -2.5697284 1
1.4558733 -0.9284134 -2.5654972 1
1.4753646 -0.933348 -2.5706863 1
1.4940746 -0.9375189 -2.5742464 1
1.5091803 -0.938649 -2.5715027 1
1.5318538 -0.9458502 -2.5812075 1
1.5575799 -0.9553216 -2.5954852 1
1.5902919 -0.9700945 -2.620494 1
1.6098104 -0.9742417 -2.6236959 1
1.6353339 -0.9829325 -2.6360881 1
1.6561426 -0.98782843 -2.6406934 1
1.6750892 -0.99120575 -2.6421733 1
1.692114 -0.99306625 -2.6405544 1
1.7040945 -0.9911415 -2.6312947 1
1.7129428 -0.9869489 -2.6174972 1
1.7123241 -0.97595435 -2.5901177 1
1.7051215 -0.9604332 -2.5538044 1
1.6985803 -0.94567925 -2.5191731 1
1.7023672 -0.93848854 -2.4997175 1
1.7081358 -0.932813 -2.4833343 2
1.7159461 -0.9286508 -2.469997 2
1.7258579 -0.9260002 -2.4596786 2
1.7379311 -0.9248594 -2.452353 2
1.7488637 -0.92296547 -2.4435575 2
1.7620177 -0.9225796 -2.4377284 2
1.7763121 -0.92294693 -2.4333687 2
1.7917773 -0.92406654 -2.430466 2
1.8084427 -0.92593753 -2.4290063 2
1.825168 -0.9278068 -2.4275203 2
1.8431338 -0.9304263 -2.4274597 2
1.8635603 -0.93454677 -2.430259 2
1.8865076 -0.94016665 -2.4358919 1
1.9047729 -0.94277734 -2.4356985 1
1.9316609 -0.95064145 -2.4455109 1
0.60507643 -1.0203867 -3.069845 1
0.61785424 -1.0168238 -3.0562959 1
0.6287234 -1.0077381 -3.0297914 1
0.6374744 -0.99313575 -2.9904242 1
0.6458663 -0.9785438 -2.951216 1
0.6562283 -0.97027 -2.9269078 1
0.66639066 -0.9620021 -2.902688 1
0.6744865 -0.9490128 -2.8675544 2
0.6841898 -0.9407583 -2.843538 2
0.69468665 -0.9348715 -2.825085 2
0.7060672 -0.9313497 -2.8121552 2
0.7180698 -0.92940366 -2.802893 2
0.7307546 -0.9290316 -2.7972715 2
0.74381053 -0.9294456 -2.7934573 2
0.75688636 -0.929859 -2.7896342 2
0.7715461 -0.9334139 -2.792996 2
0.7887113 -0.9416773 -2.807077 1
1.1057854 -0.94273716 -2.6921945 2
1.1155273 -0.9384665 -2.678019 2
1.130453 -0.9404196 -2.6773195 2
1.1427568 -0.93926173 -2.6698954 2
1.1557211 -0.93888146 -2.6641502 2
1.167995 -0.9377244 -2.6567392 2
1.1809493 -0.9373445 -2.6509986 2
1.1939037 -0.93696445 -2.6452577 1
1.2075783 -0.93736035 -2.6411693 1
1.2227335 -0.9393067 -2.6403682 1
1.2372082 -0.9404761 -2.6378968 1
1.2494723 -0.9393193 -2.6304903 1
1.2632366 -0.9397126 -2.626362 1
1.2747104 -0.937782 -2.6173341 1
1.285364 -0.93507856 -2.606698 1
1.301489 -0.93779355 -2.6074386 1
1.3168937 -0.9397326 -2.6065269 1
1.3307381 -0.9401235 -2.6023633 1
1.3470627 -0.9428325 -2.6030154 1
1.3584865 -0.9409035 -2.5940096 1
1.3723907 -0.9412927 -2.5898194 1
1.6793582 -1.0215507 -2.6746063 1
1.6975491 -1.024205 -2.6744313 1
1.7067322 -1.0199506 -2.6605039 1
1.7168351 -1.0164664 -2.6481402 1
1.7247988 -1.011451 -2.6327813 1
1.7246591 -0.9795756 -2.5539782 1
1.7137405 -0.9615651 -2.5134697 1
1.7142384 -0.95198673 -2.4895897 1
1.7210344 -0.94700545 -2.4747481 2
1.7299099 -0.9435572 -2.4629283 2
1.7409246 -0.9416401 -2.454104 2
1.7530187 -0.9404883 -2.4467726 2
1.7662227 -0.94010097 -2.4409213 2
1.7805659 -0.9404773 -2.4365368 2
1.7972281 -0.9423794 -2.4350677 2
1.8127908 -0.9435169 -2.4321141 2
1.8307321 -0.9461786 -2.4320498 2
1.8475741 -0.9480755 -2.430501 2
1.8692334 -0.9530191 -2.4347038 1
1.8886337 -0.9564349 -2.4359646 1
1.9178087 -0.96593994 -2.4486666 1
0.6028445 -1.0323429 -3.059899 1
0.61609685 -1.0303392 -3.0500903 1
0.6274884 -1.0227392 -3.0273302 1
0.6370795 -1.0103474 -2.99356 1
0.6458111 -0.9963663 -2.956235 1
0.65623385 -0.9879872 -2.9319363 1
0.6667571 -0.9804123 -2.9095612 1
0.67555046 -0.9688515 -2.8781126 2
0.68566453 -0.96128863 -2.8559186 2
0.6962589 -0.9553265 -2.837448 2
0.7073936 -0.9509631 -2.8226736 2
0.71947837 -0.94899386 -2.8133821 2
0.7318831 -0.94782263 -2.805917 2
0.74537766 -0.94904155 -2.8038726 2
0.7589121 -0.95025915 -2.8018107 2
0.7748258 -0.9562512 -2.8105023 1
1.1219001 -0.96141 -2.6940856 1
1.1389202 -0.9657548 -2.698351 2
1.1520442 -0.9653699 -2.692535 2
1.1644889 -0.96419746 -2.685052 2
1.1755351 -0.96145135 -2.674253 1
1.1879199 -0.9602807 -2.6667964 1
1.2017032 -0.96068376 -2.6626563 1
1.2147872 -0.9602999 -2.656858 1
1.2293297 -0.96148807 -2.6543493 1
1.2431729 -0.9618893 -2.6501827 1
1.2600328 -0.96543163 -2.652551 1
1.2686417 -0.96033496 -2.636928 1
1.2779001 -0.9560266 -2.6229854 1
1.7119671 -1.0514789 -2.6943345 1
1.7172807 -1.0440567 -2.674268 1
1.7234333 -1.0374177 -2.6557977 1
