ply
format ascii 1.0
comment v20 pointcloud — conf>=1, radius=1.7m, n=6611
element vertex 1404
property float x
property float y
property float z
property uchar confidence
end_header
0.7519374 -0.6941541 -2.7140753 2
0.7635215 -0.6931573 -2.706908 2
0.7755039 -0.69279754 -2.7015884 2
0.7874863 -0.6924377 -2.6962688 2
0.79990685 -0.6927137 -2.692779 2
0.8123474 -0.692989 -2.6892807 2
0.8252661 -0.69389886 -2.6875944 2
0.83822465 -0.6948075 -2.6858907 2
0.85170126 -0.6963495 -2.6859813 2
0.86474967 -0.6972555 -2.6842375 2
0.8778379 -0.69816023 -2.682476 2
0.890458 -0.6984302 -2.6788979 2
0.9030981 -0.69869953 -2.6753109 2
0.9147022 -0.69770217 -2.6681347 2
0.9268242 -0.69733816 -2.6627529 2
0.93839836 -0.69634175 -2.65559 2
0.9499525 -0.69534594 -2.648436 2
0.9614867 -0.6943507 -2.641291 2
0.9724231 -0.6927245 -2.6323864 2
0.98390734 -0.6917308 -2.6252635 2
0.9953717 -0.69073766 -2.6181493 2
1.0068161 -0.6897451 -2.611044 2
1.0182406 -0.6887532 -2.6039474 2
1.0302728 -0.68839186 -2.5986056 2
1.0423051 -0.6880306 -2.5932639 2
1.0543374 -0.6876693 -2.587922 2
1.0663697 -0.687308 -2.5825803 2
1.0770665 -0.68568903 -2.5737822 2
1.0877236 -0.68407124 -2.565002 2
1.0990283 -0.6830829 -2.5579586 2
1.110313 -0.68209517 -2.5509243 2
1.1215779 -0.681108 -2.5438986 2
1.1328228 -0.6801215 -2.536882 2
1.1440477 -0.6791355 -2.529874 2
1.1567277 -0.67940366 -2.5262692 2
1.1686802 -0.6790448 -2.520963 2
1.18139 -0.679312 -2.5173447 2
1.1933525 -0.6789528 -2.512034 2
1.2068698 -0.6798447 -2.510082 2
1.2188522 -0.6794849 -2.5047624 2
1.2324294 -0.680375 -2.502784 2
1.2444316 -0.68001455 -2.4974556 2
1.2580687 -0.68090284 -2.4954505 2
1.2709183 -0.68116593 -2.4917703 2
1.284625 -0.6820521 -2.4897342 2
1.2983719 -0.6829371 -2.4876804 2
1.3113012 -0.68319774 -2.483965 2
1.3251178 -0.68408066 -2.48188 2
1.3389744 -0.68496233 -2.4797776 2
1.3519837 -0.6852206 -2.4760265 2
1.3659099 -0.6861002 -2.473893 2
1.3798763 -0.6869786 -2.4717417 2
1.3938824 -0.6878558 -2.4695728 2
1.4070014 -0.68811077 -2.465773 2
1.4210774 -0.6889859 -2.4635732 2
1.4351933 -0.68985975 -2.4613554 2
1.448392 -0.69011235 -2.4575202 2
1.4616108 -0.6903643 -2.4536762 2
1.4758265 -0.6912352 -2.4514143 2
1.4890952 -0.69148564 -2.4475482 2
1.5033807 -0.6923545 -2.4452553 2
1.5166992 -0.69260347 -2.441367 2
1.5310545 -0.6934702 -2.439043 2
1.5454499 -0.6943357 -2.4367013 2
1.5588481 -0.6945823 -2.4327776 2
1.5733132 -0.6954457 -2.430405 2
1.588875 -0.69692504 -2.4295697 2
1.6044967 -0.69840264 -2.428708 2
1.6201782 -0.69987845 -2.42782 2
1.6359196 -0.7013524 -2.4269052 2
1.6495274 -0.7015927 -2.4228885 2
1.6642619 -0.70244807 -2.420396 2
1.6779197 -0.70268685 -2.4163573 2
1.6915973 -0.702925 -2.4123096 2
1.7041584 -0.70254785 -2.406733 2
1.7167194 -0.70217067 -2.4011567 2
1.7292805 -0.7017935 -2.39558 2
1.7418416 -0.7014163 -2.3900034 2
1.7555791 -0.7016527 -2.3859293 2
1.7681501 -0.70127517 -2.3803482 2
1.7819176 -0.70151067 -2.3762608 2
1.7957052 -0.70174557 -2.3721642 2
1.8107289 -0.7025922 -2.3695436 2
1.8257927 -0.7034377 -2.366905 2
1.8408962 -0.7042819 -2.3642488 2
1.8560398 -0.705125 -2.361575 2
1.869967 -0.70535564 -2.3574164 2
1.8877128 -0.7074183 -2.3576362 2
1.9080912 -0.71069974 -2.3607366 2
1.9337343 -0.7164186 -2.3695977 1
1.9582807 -0.72152156 -2.3769212 1
1.9830067 -0.72661906 -2.384165 1
2.0092285 -0.7323206 -2.3927693 1
0.6028315 -0.7625179 -2.9335501 1
0.6102517 -0.74911 -2.8898373 1
0.62115765 -0.744827 -2.87287 2
0.6322315 -0.7411981 -2.8578491 2
0.64261067 -0.7362717 -2.8390946 2
0.6531576 -0.73199946 -2.8222868 2
0.6635847 -0.7277308 -2.805532 2
0.67454696 -0.7247646 -2.7925816 2
0.685092 -0.72115165 -2.7777953 2
0.69588447 -0.71819055 -2.7649202 2
0.7065974 -0.71523184 -2.7520807 2
0.7179649 -0.71357197 -2.7429922 2
0.7292925 -0.71191335 -2.7339213 2
0.74096745 -0.7109035 -2.7267172 2
0.7526225 -0.7098943 -2.719522 2
0.76385033 -0.7082386 -2.7104955 2
0.7758727 -0.70787764 -2.7051582 2
0.78789496 -0.7075166 -2.699821 2
0.80035436 -0.70780176 -2.6963103 2
0.81283367 -0.7080863 -2.692791 2
0.82579017 -0.7090157 -2.6910808 2
0.8387865 -0.709944 -2.689353 2
0.8522997 -0.711516 -2.6894166 2
0.8653859 -0.7124416 -2.6876488 2
0.8785118 -0.713366 -2.6858633 2
0.89117086 -0.7136451 -2.6822643 2
0.9033328 -0.7132799 -2.6768649 2
0.9154948 -0.7129147 -2.6714656 2
0.92765677 -0.7125495 -2.6660662 2
0.9392718 -0.7115415 -2.6588888 2
0.95086694 -0.7105341 -2.65172 2
0.96244216 -0.70952725 -2.6445603 2
0.97399735 -0.708521 -2.6374094 2
0.98553264 -0.70751536 -2.6302674 2
0.99645126 -0.705869 -2.6213782 2
1.0079366 -0.70486486 -2.6142583 2
1.0194021 -0.7038613 -2.6071472 2
1.0314742 -0.70349884 -2.6017876 2
1.0435464 -0.7031363 -2.5964282 2
1.0556186 -0.7027738 -2.5910687 2
1.0676908 -0.70241135 -2.5857093 2
1.0784298 -0.7007704 -2.5768998 2
1.0898055 -0.6997695 -2.5698285 2
1.1011611 -0.6987693 -2.5627663 2
1.1124969 -0.69776964 -2.5557127 2
1.1238127 -0.6967706 -2.5486681 2
1.134392 -0.6951344 -2.5399296 2
1.1463844 -0.6947743 -2.5346055 2
1.1576403 -0.6937771 -2.5275874 2
1.1703691 -0.6940541 -2.5239575 2
1.1823615 -0.693694 -2.5186334 2
1.1951202 -0.69397014 -2.51499 2
1.2078989 -0.6942457 -2.5113378 2
1.2206975 -0.69452065 -2.5076768 2
1.2335161 -0.694795 -2.5040069 2
1.2463547 -0.6950687 -2.500328 2
1.2600294 -0.6959766 -2.498299 2
1.2729179 -0.6962489 -2.494598 2
1.2866625 -0.6971547 -2.492538 2
1.2996007 -0.6974254 -2.4888148 2
1.3134152 -0.69832915 -2.4867237 2
1.3272696 -0.6992316 -2.4846148 2
1.3411638 -0.70013297 -2.4824884 2
1.3542118 -0.7004004 -2.4787166 2
1.3681759 -0.7012996 -2.476559 2
1.3821799 -0.7021976 -2.4743838 2
1.3962238 -0.7030944 -2.4721906 2
1.4093816 -0.7033586 -2.4683702 2
1.4234954 -0.7042533 -2.4661462 2
1.437649 -0.7051468 -2.4639046 2
1.4508866 -0.7054086 -2.4600487 2
1.4651101 -0.7063 -2.4577758 2
1.4783976 -0.70656025 -2.4538977 2
1.4917051 -0.70681995 -2.4500108 2
1.5060283 -0.70770836 -2.4476938 2
1.5203915 -0.7085956 -2.445359 2
1.5337788 -0.7088528 -2.4414368 2
1.5482118 -0.70973796 -2.439071 2
1.5626848 -0.7106219 -2.4366875 2
1.5782433 -0.7121325 -2.435843 2
1.5938617 -0.7136413 -2.434972 2
1.6084743 -0.71452105 -2.4325266 2
1.6242024 -0.71602654 -2.4316068 2
1.6389048 -0.71690357 -2.4291215 2
1.6525515 -0.717153 -2.4250839 2
1.6673237 -0.718028 -2.4225676 2
1.6821358 -0.7189017 -2.4200335 2
1.6947368 -0.7185233 -2.4144392 2
1.7073377 -0.71814495 -2.408845 2
1.7199388 -0.7177666 -2.4032507 2
1.7325398 -0.7173882 -2.3976564 2
1.7451407 -0.71700984 -2.3920622 2
1.7577416 -0.7166315 -2.386468 2
1.771528 -0.71687675 -2.3823686 2
1.7853342 -0.7171214 -2.3782601 2
1.8003659 -0.7179886 -2.3756287 2
1.8154374 -0.71885455 -2.3729794 2
1.8305489 -0.7197193 -2.3703125 2
1.8457003 -0.72058284 -2.3676279 2
1.8596463 -0.72082335 -2.3634574 2
1.8761226 -0.7223064 -2.3622055 2
1.8964547 -0.7256514 -2.3653045 2
1.9207319 -0.73085576 -2.372715 1
1.947759 -0.73729604 -2.3829463 1
1.9711204 -0.7418686 -2.3887424 1
1.9998617 -0.7489166 -2.4002337 1
2.0248973 -0.75409824 -2.4073076 1
0.6118187 -0.7694948 -2.906768 1
0.6217352 -0.76250076 -2.8821924 1
0.6323116 -0.75749576 -2.863376 1
0.6430446 -0.7531557 -2.846507 2
0.6533515 -0.7481588 -2.8278103 2
0.6641514 -0.7444864 -2.8129292 2
0.67485154 -0.74081695 -2.7980921 2
0.68578804 -0.7378101 -2.7851677 2
0.6962986 -0.7341463 -2.7704148 2
0.70670927 -0.73048556 -2.7557065 2
0.71811897 -0.7288037 -2.7466066 2
0.7294886 -0.7271231 -2.7375243 2
0.74159074 -0.7267597 -2.7321515 2
0.7529006 -0.7250808 -2.723096 2
0.7649828 -0.724718 -2.717732 2
0.7766489 -0.7236981 -2.7105355 2
0.7882949 -0.7226787 -2.703348 2
0.8007932 -0.72297305 -2.6998165 2
0.8137574 -0.723923 -2.6980956 2
0.8267615 -0.7248718 -2.696357 2
0.8398056 -0.7258194 -2.6946006 2
0.85288954 -0.72676575 -2.6928265 2
0.8664993 -0.72836596 -2.6928365 2
0.8791771 -0.7286549 -2.6892254 2
0.8918749 -0.7289433 -2.6856055 2
0.9040768 -0.7285769 -2.6801884 2
0.9162787 -0.7282105 -2.6747713 2
0.9284805 -0.7278441 -2.6693542 2
0.9401367 -0.72682446 -2.6621623 2
0.9517728 -0.72580546 -2.654979 2
0.9633889 -0.724787 -2.6478047 2
0.9755609 -0.7244215 -2.642401 2
0.9865614 -0.7227519 -2.6334825 2
0.9981178 -0.7217353 -2.6263347 2
1.0090485 -0.7200678 -2.6174474 2
1.0205549 -0.7190527 -2.6103218 2
1.032667 -0.71868896 -2.6049447 2
1.0447791 -0.7183253 -2.5995674 2
1.0562456 -0.7173114 -2.5924594 2
1.0690032 -0.7175979 -2.588813 2
1.0804498 -0.71658456 -2.581714 2
1.0918765 -0.7155718 -2.5746238 2
1.1032832 -0.7145597 -2.5675423 2
1.1146698 -0.7135481 -2.5604699 2
1.1260366 -0.71253717 -2.5534062 2
1.136668 -0.71087873 -2.544652 2
1.1479849 -0.70986927 -2.5376103 2
1.1600171 -0.70950794 -2.5322685 2
1.1720494 -0.7091467 -2.5269268 2
1.184837 -0.7094323 -2.523267 2
1.1968793 -0.7090707 -2.517921 2
1.2096968 -0.7093555 -2.514248 2
1.2225342 -0.7096396 -2.510566 2
1.2353916 -0.70992315 -2.506875 2
1.2490742 -0.71085155 -2.5048354 2
1.2619815 -0.7111336 -2.5011225 2
1.2757338 -0.7120599 -2.4990516 2
1.288691 -0.7123405 -2.4953165 2
1.3025134 -0.7132647 -2.4932146 2
1.3155204 -0.7135437 -2.4894574 2
1.3294125 -0.71446586 -2.4873245 2
1.3424695 -0.71474344 -2.483545 2
1.3564314 -0.71566343 -2.4813814 2
1.3704332 -0.71658224 -2.4792 2
1.384475 -0.71749985 -2.4770005 2
1.3985566 -0.7184163 -2.4747837 2
1.4126781 -0.7193315 -2.472549 2
1.4259046 -0.71960396 -2.4686942 2
1.4400961 -0.7205171 -2.4664285 2
1.4533726 -0.72078806 -2.4625516 2
1.4676337 -0.72169906 -2.460255 2
1.4819349 -0.7226089 -2.4579406 2
1.4962759 -0.72351754 -2.4556084 2
1.5096622 -0.7237852 -2.4516828 2
1.524073 -0.72469175 -2.4493196 2
1.5375092 -0.7249579 -2.445372 2
1.5519898 -0.7258623 -2.442978 2
1.5675452 -0.7274041 -2.442124 2
1.5821157 -0.7283059 -2.4396899 2
1.5988353 -0.73048234 -2.4403365 2
1.6135056 -0.73138106 -2.437858 2
1.6282158 -0.73227865 -2.435362 2
1.6429659 -0.733175 -2.4328485 2
1.6566615 -0.73343337 -2.4287856 2
1.6714814 -0.7343276 -2.4262407 2
1.6852267 -0.7345845 -2.4221559 2
1.6978676 -0.7342049 -2.4165437 2
1.7105085 -0.7338253 -2.4109318 2
1.7231493 -0.73344576 -2.40532 2
1.7357901 -0.7330662 -2.399708 2
1.7484311 -0.73268664 -2.394096 2
1.7622463 -0.7329414 -2.3899798 2
1.7760814 -0.7331956 -2.3858552 2
1.7899365 -0.7334492 -2.3817213 2
1.8050159 -0.73433566 -2.3790615 2
1.8201352 -0.7352209 -2.3763838 2
1.8352944 -0.73610497 -2.3736885 2
1.8504934 -0.7369878 -2.3709755 2
1.8657323 -0.7378695 -2.3682446 2
1.8835196 -0.7400139 -2.3684173 2
1.9077073 -0.74531424 -2.3758347 2
1.9346228 -0.75187194 -2.386076 1
1.9656101 -0.76031625 -2.4005613 1
1.9904064 -0.76559836 -2.4077086 1
2.0179904 -0.772136 -2.417653 1
0.61442316 -0.79279655 -2.9312131 1
0.62284833 -0.7816636 -2.895254 1
0.6329514 -0.7752403 -2.8726454 1
0.6437607 -0.7708357 -2.8557646 1
0.6538398 -0.7650931 -2.8351805 2
0.6643897 -0.7606963 -2.8184147 2
0.67547035 -0.7576436 -2.8054407 2
0.68613595 -0.75392336 -2.7906373 2
0.69670177 -0.7502061 -2.7758782 2
0.7071678 -0.74649185 -2.7611632 2
0.7186295 -0.7447877 -2.7520473 2
0.7300512 -0.7430847 -2.7429492 2
0.74220324 -0.7427198 -2.7375543 2
0.7535651 -0.74101865 -2.728483 2
0.76529217 -0.73998654 -2.721263 2
0.7769991 -0.738955 -2.714052 2
0.78911126 -0.7385913 -2.7086747 2
0.8012233 -0.7382276 -2.7032974 2
0.8142253 -0.7391972 -2.7015526 2
0.82726717 -0.7401656 -2.69979 2
0.84034896 -0.74113274 -2.6980097 2
0.85347056 -0.74209875 -2.6962116 2
0.8666322 -0.7430635 -2.6943958 2
0.8798338 -0.7440271 -2.6925623 2
0.8920655 -0.7436598 -2.687132 2
0.90429735 -0.7432925 -2.6817017 2
0.9160044 -0.742261 -2.6744905 2
0.92822635 -0.741894 -2.6690645 2
0.94044816 -0.741527 -2.6636388 2
0.9521153 -0.7404967 -2.6564453 2
0.9643271 -0.74013 -2.6510239 2
0.9759643 -0.7391006 -2.643844 2
0.9875816 -0.73807174 -2.6366725 2
0.9985843 -0.73638135 -2.6277606 2
1.0101517 -0.735354 -2.6206114 2
1.0216991 -0.73432726 -2.6134713 2
1.0338511 -0.73396236 -2.6080763 2
1.0460031 -0.73359746 -2.6026814 2
1.0581551 -0.73323256 -2.5972865 2
1.0696527 -0.73220736 -2.5901685 2
1.0817946 -0.73184276 -2.584778 2
1.0939367 -0.73147815 -2.5793874 2
1.1053942 -0.7304541 -2.572287 2
1.1175263 -0.73008984 -2.5669012 2
1.128954 -0.72906667 -2.559814 2
1.1403618 -0.72804415 -2.5527358 2
1.1510253 -0.72636396 -2.5439744 2
1.1623832 -0.72534287 -2.5369184 2
1.1744653 -0.7249801 -2.5315545 2
1.1873018 -0.7252746 -2.5278695 2
1.1993939 -0.7249116 -2.522501 2
1.2122601 -0.7252052 -2.5188026 2
1.2243623 -0.72484183 -2.5134299 2
1.2372586 -0.72513455 -2.5097182 2
1.2509788 -0.72608256 -2.5076544 2
1.263925 -0.7263738 -2.5039206 2
1.276891 -0.7266645 -2.500178 2
1.290711 -0.7276095 -2.49807 2
1.304571 -0.7285533 -2.495944 2
1.318471 -0.72949594 -2.4938006 2
1.3324108 -0.73043734 -2.4916391 2
1.3463905 -0.73137754 -2.4894602 2
1.3595262 -0.7316631 -2.4856424 2
1.3735757 -0.7326012 -2.4834323 2
1.3876652 -0.73353815 -2.4812047 2
1.4017946 -0.7344739 -2.4789593 2
1.41504 -0.7347562 -2.4750926 2
1.4292392 -0.73568976 -2.4728162 2
1.4434782 -0.7366222 -2.470522 2
1.4577574 -0.7375534 -2.4682102 2
1.4711125 -0.7378324 -2.4642947 2
1.4854614 -0.73876154 -2.461952 2
1.4998502 -0.73968947 -2.4595914 2
1.5132852 -0.73996603 -2.4556406 2
1.5277437 -0.7408919 -2.453249 2
1.5422423 -0.7418165 -2.4508398 2
1.5567807 -0.74274 -2.4484127 2
1.5723926 -0.7443112 -2.4475226 2
1.5880643 -0.7458806 -2.4466062 2
1.603796 -0.7474482 -2.4456632 2
1.618524 -0.74836594 -2.443152 2
1.6322184 -0.74863476 -2.439086 2
1.6459328 -0.7489029 -2.4350111 2
1.6607605 -0.74981767 -2.4324558 2
1.6745248 -0.7500844 -2.4283588 2
1.688309 -0.7503505 -2.424253 2
1.7021132 -0.75061595 -2.4201381 2
1.7148038 -0.7502349 -2.414504 2
1.7274946 -0.7498538 -2.40887 2
1.7401854 -0.74947274 -2.403236 2
1.7528762 -0.7490917 -2.3976018 2
1.7667402 -0.7493554 -2.3934605 2
1.7806242 -0.7496185 -2.3893104 2
1.7957212 -0.7505251 -2.3866353 2
1.8108584 -0.7514306 -2.3839426 2
1.8260353 -0.7523349 -2.381232 2
1.8424753 -0.7538812 -2.3799744 2
1.857742 -0.7547828 -2.3772242 2
1.8730485 -0.7556831 -2.374456 2
1.8934075 -0.7591518 -2.3774998 2
1.9189383 -0.7651851 -2.386302 1
1.9497608 -0.7737796 -2.40081 1
1.9834286 -0.78364855 -2.418082 1
2.008365 -0.78901976 -2.4251347 1
2.0399954 -0.79758996 -2.4392836 1
0.6244905 -0.802378 -2.9120355 1
0.63329196 -0.7924486 -2.8799872 1
0.64387333 -0.78729826 -2.8612192 2
0.6540109 -0.7814709 -2.840638 2
0.66461724 -0.77701026 -2.823869 2
0.675428 -0.7732338 -2.809019 2
0.686473 -0.77014065 -2.7960753 2
0.69709414 -0.7663699 -2.7813098 2
0.70796955 -0.7632819 -2.7684414 2
0.7191292 -0.7608757 -2.7574568 2
0.7306029 -0.75915045 -2.748343 2
0.7424208 -0.7581052 -2.7410862 2
0.7542188 -0.7570606 -2.7338386 2
0.76599675 -0.75601655 -2.7265995 2
0.7777548 -0.7549731 -2.7193694 2
0.78949285 -0.7539303 -2.7121482 2
0.8020787 -0.7542427 -2.7085707 2
0.8146845 -0.75455457 -2.7049844 2
0.82776415 -0.7555425 -2.7031977 2
0.84088373 -0.75652933 -2.7013934 2
0.8540431 -0.7575149 -2.6995714 2
0.86724246 -0.7584993 -2.6977317 2
0.8804817 -0.7594825 -2.6958742 2
0.8927535 -0.759114 -2.690426 2
0.9050251 -0.7587455 -2.684978 2
0.9172969 -0.758377 -2.67953 2
0.92903495 -0.7573342 -2.6723087 2
0.9412967 -0.756966 -2.666865 2
0.95300484 -0.75592405 -2.6596572 2
0.96469307 -0.75488275 -2.6524582 2
0.9763613 -0.753842 -2.645268 2
0.9885931 -0.7534747 -2.6398375 2
0.99963784 -0.75176233 -2.630914 2
1.0112462 -0.7507234 -2.6237504 2
1.0234481 -0.75035703 -2.6183333 2
1.0350266 -0.74931896 -2.611183 2
1.0472184 -0.74895287 -2.6057703 2
1.0594103 -0.7485868 -2.6003578 2
1.0716022 -0.7482207 -2.5949452 2
1.0837941 -0.7478546 -2.5895324 2
1.0959861 -0.7474885 -2.5841198 2
1.108178 -0.7471224 -2.5787072 2
1.1196766 -0.7460868 -2.5715923 2
1.1311553 -0.74505174 -2.5644863 2
1.1433272 -0.74468625 -2.5590825 2
1.1540527 -0.74298346 -2.5503006 2
1.1654716 -0.7419502 -2.5432212 2
1.1776135 -0.7415856 -2.5378308 2
1.1897556 -0.741221 -2.5324402 2
1.2018976 -0.7408564 -2.5270498 2
1.2140396 -0.7404918 -2.5216594 2
1.2269647 -0.74079406 -2.5179312 2
1.2399098 -0.7410957 -2.5141943 2
1.2528747 -0.7413968 -2.5104485 2
1.2666727 -0.7423632 -2.508343 2
1.2805105 -0.7433284 -2.5062196 2
1.2935554 -0.7436271 -2.5024385 2
1.307463 -0.7445902 -2.5002842 2
1.3214107 -0.7455521 -2.4981122 2
1.3353982 -0.74651283 -2.4959226 2
1.3494257 -0.74747235 -2.4937153 2
1.363493 -0.7484307 -2.49149 2
1.3776002 -0.74938786 -2.489247 2
1.3908446 -0.7496805 -2.4853773 2
1.4050217 -0.75063556 -2.4831035 2
1.4183159 -0.75092673 -2.4792116 2
1.4325628 -0.75187963 -2.4769068 2
1.4468497 -0.7528314 -2.474584 2
1.4611764 -0.7537819 -2.4722438 2
1.4755431 -0.75473124 -2.4698858 2
1.488977 -0.75501823 -2.465932 2
1.5034136 -0.7559655 -2.463543 2
1.5178899 -0.7569115 -2.461136 2
1.5314037 -0.7571961 -2.457147 2
1.5459498 -0.75814 -2.454709 2
1.560536 -0.7590828 -2.4522536 2
1.5761945 -0.7606837 -2.451332 2
1.591913 -0.76228285 -2.4503841 2
1.6076913 -0.76388013 -2.4494095 2
1.6214045 -0.7641587 -2.4453313 2
1.6351377 -0.7644367 -2.4412446 2
1.6499733 -0.765372 -2.4386785 2
1.6637564 -0.7656485 -2.4345694 2
1.6775595 -0.7659244 -2.4304516 2
1.6913825 -0.76619965 -2.4263248 2
1.7052255 -0.76647437 -2.4221892 2
1.7179561 -0.7660921 -2.4165375 2
1.7306868 -0.7657098 -2.4108856 2
1.7434175 -0.7653276 -2.4052339 2
1.7573103 -0.76560074 -2.401076 2
1.7712232 -0.7658734 -2.3969095 2
1.7863381 -0.7668002 -2.3942194 2
1.8014928 -0.7677259 -2.3915114 2
1.8166877 -0.76865035 -2.3887858 2
1.8331344 -0.7702276 -2.3875144 2
1.8496411 -0.7718031 -2.3862164 2
1.8649755 -0.7727233 -2.3834288 2
1.8828337 -0.77494854 -2.3835409 2
1.9032758 -0.77847695 -2.3865256 1
1.9314097 -0.78591657 -2.3981564 1
1.9635986 -0.7953055 -2.414017 1
1.996087 -0.8046855 -2.4297445 1
2.0288746 -0.81405646 -2.4453394 1
0.62747455 -0.8267839 -2.9381738 1
0.6336194 -0.80978173 -2.8872912 1
0.643682 -0.80317295 -2.864766 1
0.6538682 -0.7972612 -2.8441923 2
0.66452086 -0.7927369 -2.8274243 2
0.6753769 -0.78890723 -2.8125725 2
0.68613315 -0.78508055 -2.797765 2
0.69713265 -0.7819473 -2.784856 2
0.70805234 -0.77881646 -2.7719824 2
0.719618 -0.7770677 -2.7628348 2
0.73114395 -0.7753201 -2.753705 2
0.7430128 -0.774263 -2.7464294 2
0.75486165 -0.7732065 -2.7391627 2
0.7662877 -0.7714619 -2.730077 2
0.7780868 -0.77040684 -2.7228324 2
0.78986573 -0.76935244 -2.7155967 2
0.8024905 -0.76967406 -2.7119982 2
0.8151351 -0.76999515 -2.7083912 2
0.82825255 -0.7710027 -2.7065804 2
0.84187245 -0.77269596 -2.7065532 2
0.85507965 -0.77370083 -2.7047026 2
0.86880946 -0.7753908 -2.7046266 2
0.88161373 -0.77570707 -2.7009485 2
0.8939353 -0.77533704 -2.6954784 2
0.9062569 -0.7749671 -2.6900082 2
0.9185785 -0.7745971 -2.684538 2
0.9309001 -0.7742271 -2.6790676 2
0.9432217 -0.7738571 -2.6735976 2
0.9544382 -0.77211887 -2.664605 2
0.9656149 -0.77038175 -2.65563 2
0.9773241 -0.7693294 -2.6484253 2
0.9895959 -0.76896095 -2.6429772 2
1.0012752 -0.76790947 -2.6357858 2
1.0129346 -0.76685864 -2.6286032 2
1.0245739 -0.7658084 -2.6214294 2
1.0368156 -0.7654408 -2.6159947 2
1.0490575 -0.76507324 -2.61056 2
1.0612992 -0.76470566 -2.6051252 2
1.0728887 -0.7636569 -2.5979733 2
1.0851206 -0.76328963 -2.5925431 2
1.0973524 -0.76292235 -2.5871127 2
1.1095842 -0.76255506 -2.5816824 2
1.121816 -0.7621877 -2.576252 2
1.1340479 -0.76182044 -2.5708218 2
1.1455674 -0.76077384 -2.5637012 2
1.1570672 -0.7597278 -2.5565894 2
1.1685469 -0.7586823 -2.5494864 2
1.1800067 -0.7576375 -2.5423923 2
1.1921986 -0.7572714 -2.5369797 2
1.2043905 -0.7569053 -2.531567 2
1.2165824 -0.7565392 -2.5261545 2
1.2295563 -0.75685036 -2.522401 2
1.2425501 -0.7571609 -2.5186388 2
1.2563659 -0.75814754 -2.516518 2
1.2694097 -0.7584566 -2.5127337 2
1.2832953 -0.75944114 -2.5105822 2
1.2972207 -0.76042444 -2.5084128 2
1.3111861 -0.7614066 -2.5062256 2
1.3251914 -0.7623875 -2.5040207 2
1.3392366 -0.76336724 -2.5017982 2
1.3533218 -0.76434577 -2.499558 2
1.3665651 -0.76464885 -2.495685 2
1.38072 -0.7656253 -2.4934137 2
1.3949149 -0.7666005 -2.4911246 2
1.4082379 -0.7669012 -2.4872165 2
1.4225028 -0.76787436 -2.4848964 2
1.4368074 -0.7688463 -2.4825587 2
1.4502102 -0.76914454 -2.4786148 2
1.4645847 -0.7701144 -2.476246 2
1.4789991 -0.77108306 -2.4738598 2
1.4924817 -0.77137893 -2.4698803 2
1.506966 -0.7723455 -2.467463 2
1.5214901 -0.77331084 -2.4650278 2
1.5350527 -0.77360433 -2.461013 2
1.5496466 -0.77456754 -2.458547 2
1.5642805 -0.7755296 -2.456063 2
1.5799856 -0.7771602 -2.45511 2
1.5957507 -0.7787891 -2.4541304 2
1.6105243 -0.77974695 -2.4515846 2
1.6253377 -0.7807036 -2.4490209 2
1.6391197 -0.7809905 -2.4449089 2
1.6529217 -0.78127676 -2.4407878 2
1.667835 -0.78223044 -2.43818 2
1.6816869 -0.7825153 -2.4340367 2
1.6955587 -0.7827995 -2.429885 2
1.7083292 -0.782416 -2.4242153 2
1.7210997 -0.7820325 -2.4185457 2
1.7338704 -0.78164905 -2.4128761 2
1.747792 -0.78193176 -2.4087021 2
1.7617337 -0.78221387 -2.404519 2
1.7756953 -0.7824954 -2.4003272 2
1.790858 -0.78344154 -2.3976085 2
1.8060606 -0.7843865 -2.3948722 2
1.8237051 -0.78665966 -2.3950646 2
1.8402184 -0.788266 -2.3937528 2
1.8567916 -0.78987056 -2.3924143 2
1.8734246 -0.7914733 -2.3910494 2
1.8913585 -0.79373777 -2.3911133 2
1.9156268 -0.7993157 -2.3983974 1
1.9425963 -0.8062139 -2.408495 1
2.0087216 -0.8259512 -2.441338 1
0.6000842 -0.87874466 -3.0517852 1
0.63478005 -0.82934755 -2.9001904 1
0.64319 -0.81842846 -2.8664143 1
0.65371674 -0.8131346 -2.8477213 2
0.66441584 -0.8085467 -2.8309546 2
0.67563915 -0.80536526 -2.8179605 2
0.6864507 -0.80148506 -2.8031466 2
0.69750446 -0.7983088 -2.7902281 2
0.70847833 -0.7951348 -2.777345 2
0.71973425 -0.7926635 -2.7663393 2
0.73130214 -0.7908939 -2.757198 2
0.7435938 -0.79052484 -2.7517412 2
0.75510186 -0.7887571 -2.7426264 2
0.76657003 -0.78699046 -2.7335296 2
0.7784101 -0.78592384 -2.7262702 2
0.79023015 -0.7848578 -2.71902 2
0.80289364 -0.7851887 -2.7154007 2
0.8160188 -0.7862168 -2.7135794 2
0.82918394 -0.78724366 -2.7117403 2
0.84331214 -0.78966385 -2.7134793 2
0.8575202 -0.79208165 -2.7151828 2
0.87132657 -0.7938004 -2.715062 2
0.88420963 -0.79412466 -2.7113454 2
0.8971126 -0.7944483 -2.70762 2
0.9100355 -0.7947714 -2.7038856 2
0.9214139 -0.7930075 -2.6948283 2
0.93381524 -0.79263514 -2.6893227 2
0.94675815 -0.7929576 -2.6855795 2
0.95861804 -0.7918904 -2.6783113 2
0.9693353 -0.78943527 -2.667545 2
0.97942126 -0.78628796 -2.655056 2
0.99117136 -0.785224 -2.6478367 2
1.0029017 -0.7841607 -2.6406262 2
1.0140107 -0.7824049 -2.6316888 2
1.0263023 -0.7820358 -2.626232 2
1.038594 -0.7816667 -2.620775 2
1.0502543 -0.7806055 -2.6135955 2
1.0625361 -0.78023666 -2.6081429 2
1.0748178 -0.7798679 -2.6026905 2
1.0870996 -0.7794991 -2.5972378 2
1.0993812 -0.77913034 -2.5917854 2
1.1116629 -0.7787615 -2.5863328 2
1.1239446 -0.77839273 -2.5808804 2
1.1355252 -0.7773339 -2.5737364 2
1.1477969 -0.7769654 -2.5682883 2
1.1593475 -0.77590746 -2.5611575 2
1.1708783 -0.77485013 -2.5540357 2
1.18313 -0.77448225 -2.5485964 2
1.1946309 -0.77342576 -2.5414877 2
1.2068727 -0.7730582 -2.536053 2
1.2198853 -0.77337855 -2.5322788 2
1.232918 -0.77369833 -2.5284956 2
1.2459707 -0.7740175 -2.5247037 2
1.2598441 -0.7750231 -2.52255 2
1.2729466 -0.7753408 -2.5187361 2
1.286069 -0.7756579 -2.514913 2
1.3000423 -0.7766605 -2.5127153 2
1.3140554 -0.7776619 -2.5104997 2
1.3281084 -0.7786622 -2.5082664 2
1.3422014 -0.77966124 -2.5060155 2
1.3563342 -0.780659 -2.503747 2
1.3696263 -0.780971 -2.4998486 2
1.383829 -0.78196675 -2.4975488 2
1.3980716 -0.7829613 -2.4952316 2
1.4123541 -0.7839546 -2.4928963 2
1.425756 -0.7842633 -2.4889493 2
1.4401083 -0.7852546 -2.4865832 2
1.4545006 -0.78624463 -2.4841993 2
1.4679822 -0.78655094 -2.480217 2
1.4824443 -0.7875389 -2.477802 2
1.4959759 -0.78784364 -2.4737976 2
1.5105077 -0.7888295 -2.4713516 2
1.5240891 -0.7891328 -2.467325 2
1.5386909 -0.79011655 -2.464848 2
1.5533326 -0.79109913 -2.4623535 2
1.5680141 -0.79208046 -2.4598413 2
1.583766 -0.7937408 -2.4588566 2
1.5985373 -0.79471946 -2.4563046 2
1.614399 -0.7963765 -2.4552712 2
1.6281998 -0.79667324 -2.451147 2
1.643091 -0.7976483 -2.4485416 2
1.6569417 -0.7979435 -2.4443953 2
1.6708125 -0.7982381 -2.4402401 2
1.6847032 -0.7985321 -2.4360762 2
1.6986138 -0.7988255 -2.4319034 2
1.7125444 -0.7991183 -2.4277217 2
1.7253649 -0.79873335 -2.42203 2
1.7381854 -0.79834837 -2.4163382 2
1.7510058 -0.7979634 -2.4106467 2
1.7661463 -0.798931 -2.4079306 2
1.7801567 -0.7992214 -2.4037135 2
1.796547 -0.80086255 -2.4024453 2
1.8118074 -0.80182654 -2.399676 2
1.8295075 -0.8041395 -2.3998294 2
1.8460773 -0.8057752 -2.3984816 2
1.8627071 -0.8074092 -2.3971071 2
1.8806267 -0.80971557 -2.397163 2
1.9011058 -0.81336725 -2.400088 2
1.9279536 -0.82038325 -2.4101999 1
1.9512417 -0.8253728 -2.4158835 1
2.0430882 -0.85888135 -2.4772518 1
0.6019981 -0.9027871 -3.0740345 1
0.61485344 -0.90023667 -3.0623295 1
0.6376071 -0.85337895 -2.9242795 1
0.64385533 -0.8365973 -2.875524 1
0.6535567 -0.82909125 -2.8512251 2
0.6646131 -0.8251519 -2.8363206 2
0.6755698 -0.8212155 -2.8214605 2
0.68642664 -0.81728214 -2.8066447 2
0.69752455 -0.81406295 -2.793721 2
0.7085427 -0.8108462 -2.7808325 2
0.7202025 -0.8090532 -2.7716577 2
0.7318225 -0.8072613 -2.7625005 2
0.74378335 -0.80618066 -2.7551913 2
0.7557242 -0.8051006 -2.747891 2
0.7672444 -0.80331177 -2.738778 2
0.77913535 -0.8022332 -2.7315 2
0.79100645 -0.80115527 -2.7242305 2
0.8037187 -0.801495 -2.720586 2
0.81733215 -0.8032507 -2.7205398 2
0.8310056 -0.80500454 -2.720467 2
0.84566 -0.80817187 -2.7239573 2
0.860414 -0.8113362 -2.7274032 2
0.8743069 -0.81308347 -2.727233 2
0.8872787 -0.81341547 -2.7234733 2
0.8997698 -0.8130404 -2.7179277 2
0.91277146 -0.8133715 -2.7141547 2
0.92475224 -0.81229025 -2.7068367 2
0.9367131 -0.8112096 -2.6995275 2
0.95081544 -0.81295055 -2.6992643 2
0.9627763 -0.8118699 -2.691955 2
0.97415674 -0.81008524 -2.6829042 2
0.98435676 -0.80689305 -2.6703792 2
0.9950572 -0.8044073 -2.659631 2
1.0056978 -0.8019234 -2.6489096 2
1.0162786 -0.7994412 -2.6382146 2
1.0280199 -0.7983672 -2.6310027 2
1.0403615 -0.79799664 -2.6255238 2
1.0520729 -0.7969235 -2.6183252 2
1.0644045 -0.7965532 -2.6128507 2
1.076736 -0.79618293 -2.6073759 2
1.0890676 -0.7958126 -2.6019013 2
1.1013992 -0.79544234 -2.5964267 2
1.1137308 -0.7950721 -2.590952 2
1.1253723 -0.79400104 -2.5837846 2
1.1376939 -0.793631 -2.5783143 2
1.1493056 -0.7925609 -2.57116 2
1.1608973 -0.7914913 -2.5640147 2
1.1731988 -0.79112196 -2.5585532 2
1.1855005 -0.79075253 -2.553092 2
1.1970522 -0.78968424 -2.5459642 2
1.2093439 -0.7893151 -2.5405073 2
1.2224054 -0.7896444 -2.5367079 2
1.235487 -0.7899731 -2.5328996 2
1.2485883 -0.79030114 -2.5290823 2
1.2625096 -0.7913261 -2.5269003 2
1.2756609 -0.7916526 -2.523061 2
1.2896519 -0.7926755 -2.520848 2
1.3036828 -0.7936971 -2.5186174 2
1.3169138 -0.7940213 -2.5147426 2
1.3310146 -0.79504085 -2.5124807 2
1.3451552 -0.7960592 -2.5102015 2
1.3593359 -0.79707634 -2.5079043 2
1.3735564 -0.79809225 -2.5055895 2
1.3878168 -0.799107 -2.503257 2
1.402117 -0.8001206 -2.5009067 2
1.4155477 -0.80043876 -2.4969432 2
1.4299178 -0.8014502 -2.494562 2
1.4433984 -0.80176693 -2.4905765 2
1.4568989 -0.802083 -2.486582 2
1.4713688 -0.80309147 -2.4841564 2
1.4849192 -0.80340606 -2.48014 2
1.4994589 -0.8044124 -2.4776833 2
1.5130593 -0.8047255 -2.4736445 2
1.5276688 -0.80572975 -2.471157 2
1.5423182 -0.80673283 -2.4686518 2
1.5570077 -0.80773467 -2.4661288 2
1.571737 -0.8087354 -2.463588 2
1.5875355 -0.8104254 -2.4625719 2
1.6023545 -0.81142336 -2.4599912 2
1.6182628 -0.8131101 -2.4589262 2
1.6331717 -0.8141054 -2.4563057 2
1.6470513 -0.8144101 -2.4521432 2
1.66203 -0.8154033 -2.4494917 2
1.6748705 -0.8150177 -2.4437912 2
1.6888099 -0.8153206 -2.439602 2
1.7027694 -0.8156229 -2.4354036 2
1.7156298 -0.81523675 -2.4296942 2
1.7284901 -0.8148506 -2.4239848 2
1.7413505 -0.81446445 -2.4182754 2
1.7553598 -0.8147653 -2.414055 2
1.769389 -0.81506544 -2.409826 2
1.7846073 -0.8160514 -2.4070683 2
1.7998654 -0.8170362 -2.4042928 2
1.8163522 -0.8187056 -2.402971 2
1.832899 -0.8203732 -2.4016225 2
1.8507144 -0.8227241 -2.40171 2
1.8686097 -0.8250727 -2.4017622 2
1.8865848 -0.82741886 -2.401779 1
1.9108335 -0.833184 -2.4090064 1
1.9352618 -0.8389438 -2.4161541 1
0.6026815 -0.9234976 -3.0867505 1
0.6163799 -0.9230863 -3.0806692 1
0.6450852 -0.8563582 -2.8883235 1
0.6536879 -0.845854 -2.8565664 2
0.66448975 -0.84113854 -2.8397975 2
0.6754917 -0.83714896 -2.8249352 2
0.68639386 -0.83316237 -2.8101175 2
0.697536 -0.82990044 -2.7971885 2
0.7085984 -0.82664084 -2.784295 2
0.7203003 -0.8248258 -2.7751088 2
0.73233205 -0.8237327 -2.7677717 2
0.7443439 -0.8226401 -2.7604434 2
0.75594604 -0.8208281 -2.7513015 2
0.76790786 -0.819737 -2.7439954 2
0.7798499 -0.8186466 -2.7366982 2
0.792611 -0.81899524 -2.7330284 2
0.80582166 -0.8200623 -2.7311544 2
0.81951165 -0.8218467 -2.7310636 2
0.8341607 -0.8250661 -2.7345378 1
0.8502878 -0.8304366 -2.7433429 1
0.86563563 -0.8343668 -2.7485025 1
0.88158274 -0.8390109 -2.7553918 1
0.9175277 -0.83500415 -2.7314515 1
0.9301486 -0.8346252 -2.7258484 1
0.9454161 -0.83782595 -2.7290483 1
0.95646906 -0.83529854 -2.7181547 2
0.9652649 -0.8299115 -2.7002807 2
0.9767175 -0.8281039 -2.691205 1
0.98756087 -0.8255828 -2.6804044 2
0.99892366 -0.8237779 -2.6713688 2
1.0096573 -0.82126004 -2.6606169 2
1.020331 -0.818744 -2.6498914 2
1.0315541 -0.8169433 -2.6409178 2
1.0433564 -0.81585705 -2.6336825 2
1.0545096 -0.8140585 -2.62474 2
1.0669011 -0.8136864 -2.6192386 2
1.0786434 -0.812602 -2.61203 2
1.0910249 -0.81223017 -2.6065333 2
1.1034064 -0.81185836 -2.6010363 2
1.1151088 -0.81077516 -2.5938454 2
1.1274804 -0.81040365 -2.5883532 2
1.1391529 -0.8093213 -2.5811756 2
1.1508055 -0.8082396 -2.5740068 2
1.1631571 -0.80786866 -2.5685232 2
1.1755086 -0.8074978 -2.5630398 2
1.1878601 -0.80712694 -2.5575562 2
1.1994629 -0.80604666 -2.5504096 2
1.2125632 -0.80638516 -2.5465891 2
1.2249148 -0.80601424 -2.5411057 2
1.238045 -0.80635184 -2.537272 2
1.2527727 -0.8081051 -2.5367203 2
1.2659628 -0.8084409 -2.53286 2
1.2799816 -0.80948365 -2.5306275 2
1.2932216 -0.8098179 -2.526745 2
1.3073102 -0.81085855 -2.5244815 2
1.3214387 -0.811898 -2.5222003 2
1.3356072 -0.81293625 -2.5199015 2
1.3498155 -0.8139733 -2.5175848 2
1.3640637 -0.8150092 -2.5152502 2
1.3783519 -0.8160438 -2.5128982 2
1.3926799 -0.8170773 -2.5105283 2
1.4061494 -0.8174047 -2.506544 2
1.4196389 -0.81773144 -2.502551 2
1.4340668 -0.81876194 -2.5001369 2
1.4476061 -0.8190872 -2.4961216 2
1.4621037 -0.82011557 -2.4936764 2
1.475693 -0.8204394 -2.489639 2
1.4902605 -0.8214657 -2.4871628 2
1.5038996 -0.82178795 -2.4831033 2
1.5185369 -0.82281214 -2.480596 2
1.5332142 -0.8238351 -2.4780712 2
1.5489296 -0.8255587 -2.477081 2
1.5626885 -0.8258774 -2.4729683 2
1.5774853 -0.8268968 -2.4703903 2
1.5923222 -0.82791495 -2.4677947 2
1.6071991 -0.828932 -2.465181 2
1.6231638 -0.8306481 -2.4640803 2
1.6381305 -0.8316624 -2.461427 2
1.653137 -0.83267546 -2.458756 2
1.6660273 -0.83228844 -2.4530332 2
1.6800056 -0.83260053 -2.448823 2
1.6929059 -0.83221316 -2.443096 2
1.7058061 -0.8318258 -2.4373689 2
1.7198244 -0.8321367 -2.433141 2
1.7327347 -0.831749 -2.4274094 2
1.7456449 -0.8313614 -2.4216778 2
1.759703 -0.8316711 -2.4174323 2
1.7726233 -0.83128315 -2.4116962 2
1.7878792 -0.83228874 -2.4089146 2
1.8031751 -0.83329314 -2.406115 2
1.8208863 -0.8356887 -2.4062343 2
1.8386775 -0.83808184 -2.4063182 2
1.854133 -0.83908147 -2.4034479 2
1.8732816 -0.8421657 -2.4049246 2
1.8925298 -0.845247 -2.406357 1
1.9205418 -0.853188 -2.4178681 1
1.9450501 -0.85903865 -2.4249477 1
0.6021511 -0.9407201 -3.0899806 1
0.61613816 -0.9410423 -3.085763 1
0.6465844 -0.8770398 -2.9029305 1
0.6544057 -0.86418724 -2.8655949 2
0.6649751 -0.85867435 -2.8469589 2
0.67540497 -0.8531657 -2.8283849 2
0.6863525 -0.84912586 -2.813565 2
0.6975389 -0.8458211 -2.800631 2
0.70899403 -0.84325045 -2.7895696 2
0.72074807 -0.8414131 -2.7803674 2
0.73283076 -0.84030807 -2.7730112 2
0.7445149 -0.8384728 -2.7638402 2
0.75654775 -0.83736926 -2.7565062 2
0.76895916 -0.83699656 -2.750996 2
0.7813705 -0.8366239 -2.745486 2
0.79461896 -0.8377105 -2.7435882 2
0.80919266 -0.840984 -2.747078 2
0.8243046 -0.8449835 -2.7523208 1
0.84312356 -0.85480946 -2.7718532 1
0.8603883 -0.8617132 -2.7841082 1
0.87785256 -0.8686109 -2.7962742 1
0.9620944 -0.85791695 -2.7369633 1
0.97102773 -0.85245323 -2.7190537 2
0.9787049 -0.8455427 -2.697718 1
0.9896114 -0.8429886 -2.6869 1
1.0021924 -0.84261084 -2.6813147 2
1.0130091 -0.8400594 -2.6705368 2
1.0249621 -0.83895826 -2.663238 2
1.0362871 -0.83713377 -2.6542265 2
1.0475721 -0.83531046 -2.6452324 2
1.0581893 -0.832765 -2.6345432 2
1.0693846 -0.8309444 -2.6255891 2
1.0818359 -0.8305705 -2.6200612 2
1.0936292 -0.82947415 -2.6128335 2
1.1060706 -0.8291006 -2.6073103 2
1.1178341 -0.82800514 -2.600096 2
1.1295775 -0.8269103 -2.5928903 2
1.141301 -0.82581604 -2.5856938 2
1.1530046 -0.8247224 -2.578506 2
1.1654061 -0.82435006 -2.5730002 2
1.1778075 -0.82397765 -2.5674946 2
1.1902089 -0.8236053 -2.561989 2
1.2026104 -0.8232329 -2.5564833 2
1.2150117 -0.82286054 -2.5509777 2
1.2289486 -0.82392645 -2.5487742 2
1.2421476 -0.82427233 -2.5449064 2
1.2561542 -0.82533616 -2.5426722 2
1.2702007 -0.82639885 -2.54042 2
1.2842872 -0.8274603 -2.53815 2
1.297596 -0.8278029 -2.5342336 2
1.3117522 -0.82886225 -2.5319328 2
1.3259485 -0.82992035 -2.5296142 2
1.339337 -0.8302606 -2.5256624 2
1.353603 -0.83131665 -2.5233128 2
1.3679091 -0.8323715 -2.5209455 2
1.3822548 -0.83342516 -2.5185604 2
1.3957533 -0.83376205 -2.5145597 2
1.4101689 -0.8348136 -2.5121439 2
1.4246244 -0.83586395 -2.50971 2
1.4391199 -0.83691317 -2.5072587 2
1.4527282 -0.8372467 -2.5032094 2
1.4672934 -0.8382938 -2.500727 2
1.4818987 -0.8393397 -2.4982266 2
1.4965439 -0.84038436 -2.495709 2
1.5112289 -0.8414278 -2.4931734 2
1.526931 -0.843183 -2.492178 2
1.5407188 -0.84351116 -2.4880488 2
1.5565207 -0.8452633 -2.4870095 2
1.5713754 -0.84630173 -2.4843986 2
1.5852529 -0.84662724 -2.4802296 2
1.5991503 -0.84695214 -2.4760518 2
1.6141047 -0.84798753 -2.4733965 2
1.6290991 -0.84902173 -2.4707236 2
1.6441333 -0.85005474 -2.468033 2
1.6570735 -0.8496662 -2.4622881 2
1.6710907 -0.84998745 -2.4580572 2
1.6840409 -0.8495986 -2.452308 2
1.696991 -0.8492097 -2.4465587 2
1.7099411 -0.84882087 -2.4408095 2
1.7228913 -0.848432 -2.43506 2
1.7358415 -0.84804314 -2.4293108 2
1.7499285 -0.8483624 -2.4250488 2
1.7628887 -0.8479732 -2.419295 2
1.7758487 -0.84758407 -2.4135416 2
1.7911423 -0.84860927 -2.4107356 2
1.8076527 -0.8503401 -2.4093819 2
1.8242229 -0.85206926 -2.4080012 2
1.8420497 -0.8545028 -2.4080548 2
1.8587495 -0.856228 -2.4066167 2
1.8791592 -0.86006844 -2.4095075 2
1.9021418 -0.86531603 -2.4152398 1
1.9277574 -0.87196904 -2.423787 1
2.2557547 -0.7218413 -1.901693 1
0.6006606 -0.95504415 -3.0856545 1
0.6148945 -0.9561219 -3.083312 1
0.64834964 -0.89867336 -2.919335 1
0.65540606 -0.88340974 -2.8764355 1
0.6657552 -0.87707835 -2.8559344 2
0.6759448 -0.8707517 -2.835504 2
0.68662995 -0.8659153 -2.8188305 2
0.69787055 -0.8625674 -2.8058867 2
0.70937896 -0.85996413 -2.7948127 2
0.721185 -0.8581044 -2.7855947 2
0.7329511 -0.85624593 -2.7763944 2
0.74505484 -0.8551299 -2.7690325 2
0.7571386 -0.85401446 -2.7616796 2
0.76999736 -0.85438097 -2.7579591 2
0.7832836 -0.85548717 -2.7560375 2
0.7978618 -0.85881233 -2.759507 2
0.81339455 -0.863614 -2.7665296 1
0.83562744 -0.8795033 -2.8004024 1
0.8520366 -0.8850313 -2.809024 1
0.8667761 -0.88759905 -2.8104339 1
0.9834647 -0.8667857 -2.712898 1
0.9973196 -0.86787486 -2.7107236 1
1.007752 -0.86455125 -2.698139 2
1.0157566 -0.8582902 -2.6786785 2
1.0283775 -0.8579112 -2.6730754 2
1.0403914 -0.8567979 -2.6657536 2
1.0523854 -0.8556852 -2.6584404 2
1.0631056 -0.8531055 -2.6477163 2
1.0744028 -0.8512611 -2.638724 2
1.0856602 -0.84941787 -2.6297498 2
1.0968776 -0.8475759 -2.620793 2
1.108722 -0.8464677 -2.6135464 2
1.1205462 -0.84536 -2.6063085 2
1.1323507 -0.84425294 -2.5990796 2
1.1441352 -0.8431465 -2.5918596 2
1.1558996 -0.84204066 -2.5846484 2
1.1690778 -0.8423976 -2.5807862 2
1.181549 -0.8420231 -2.5752497 2
1.1940203 -0.8416486 -2.5697129 2
1.2064915 -0.84127414 -2.5641763 2
1.2197194 -0.8416295 -2.560292 2
1.2329673 -0.8419843 -2.5563989 2
1.246235 -0.8423385 -2.552497 2
1.2603093 -0.84342104 -2.5502253 2
1.2744235 -0.8445024 -2.547936 2
1.2885776 -0.84558254 -2.5456288 2
1.3019551 -0.84593344 -2.5416782 2
1.3161792 -0.8470115 -2.53934 2
1.330443 -0.8480884 -2.5369842 2
1.3447467 -0.84916407 -2.5346105 2
1.358234 -0.8495116 -2.5306113 2
1.3726077 -0.85058516 -2.5282066 2
1.3870212 -0.85165757 -2.5257845 2
1.4014746 -0.8527287 -2.5233445 2
1.415968 -0.8537987 -2.5208867 2
1.4305012 -0.85486746 -2.5184114 2
1.4459906 -0.8566601 -2.5174997 2
1.4606136 -0.8577262 -2.5149844 2
1.4762129 -0.85951555 -2.514024 2
1.4918718 -0.8613031 -2.5130372 2
1.5066346 -0.862365 -2.51046 2
1.5233694 -0.8648728 -2.5109837 2
1.5401843 -0.8673783 -2.511472 1
1.5590509 -0.8713273 -2.515026 1
1.5760453 -0.87382734 -2.5154347 1
1.5901012 -0.87415785 -2.5111828 1
1.597065 -0.8694332 -2.4961612 1
1.609039 -0.86832106 -2.488857 1
1.623065 -0.8686525 -2.4846184 2
1.638157 -0.8697045 -2.481895 2
1.651177 -0.86931354 -2.4761147 2
1.664197 -0.8689226 -2.4703345 2
1.677217 -0.86853164 -2.464554 2
1.690237 -0.86814064 -2.4587739 2
1.7021612 -0.86703 -2.4514918 2
1.7140653 -0.86592 -2.4442186 2
1.7270653 -0.86552966 -2.4384472 2
1.7400655 -0.86513925 -2.4326758 2
1.7530655 -0.8647489 -2.4269044 2
1.7660655 -0.86435854 -2.4211328 2
1.7802212 -0.8646861 -2.4168367 2
1.7955626 -0.8657306 -2.4140027 2
1.8121196 -0.8674912 -2.412617 2
1.8299221 -0.869967 -2.4126668 2
1.8466088 -0.87172365 -2.4112236 2
1.8645608 -0.8741949 -2.4112072 2
1.8862395 -0.8788121 -2.415501 1
1.9117343 -0.8855724 -2.4240658 1
1.9411354 -0.8944732 -2.4368615 1
0.5996436 -0.9708798 -3.0850878 1
0.6129085 -0.9689555 -3.0752294 1
0.62433654 -0.96174574 -3.0522935 1
0.64980453 -0.9197815 -2.9338129 1
0.6569823 -0.9043068 -2.890932 1
0.66621363 -0.89487416 -2.8630173 2
0.6761551 -0.8877091 -2.8407414 2
0.6868966 -0.88280874 -2.8240645 2
0.697855 -0.878665 -2.8092759 2
0.7094065 -0.8760292 -2.7981935 2
0.7212546 -0.87414753 -2.788964 2
0.7334293 -0.873019 -2.7815742 2
0.745584 -0.8718911 -2.7741935 2
0.75771874 -0.8707637 -2.7668216 2
0.7706263 -0.8711391 -2.7630758 2
0.7855855 -0.8752676 -2.768343 2
0.8014971 -0.8808935 -2.7771566 1
0.82140505 -0.89326596 -2.8020585 1
0.83990717 -0.90262884 -2.8196454 1
1.0132856 -0.88674134 -2.7148876 1
1.0255201 -0.885611 -2.7074714 2
1.0341592 -0.8800109 -2.689743 2
1.0444763 -0.87664926 -2.677224 2
1.0577929 -0.8770124 -2.6732967 2
1.0680002 -0.87365407 -2.6608264 2
1.0793993 -0.8717859 -2.6517963 2
1.0901128 -0.86917526 -2.6410859 2
1.102078 -0.868053 -2.633789 2
1.1133574 -0.8661884 -2.6248121 2
1.124597 -0.86432505 -2.615853 2
1.1364822 -0.8632052 -2.6085918 2
1.147652 -0.86134386 -2.5996635 2
1.1601931 -0.8609673 -2.594096 2
1.1727341 -0.8605907 -2.5885282 2
1.186001 -0.8609553 -2.584623 2
1.198552 -0.8605784 -2.579051 2
1.2111031 -0.86020154 -2.573479 2
1.2244097 -0.86056495 -2.569556 2
1.2377362 -0.8609277 -2.5656245 2
1.2510828 -0.8612899 -2.561684 2
1.2644492 -0.86165154 -2.5577345 2
1.2786311 -0.8627516 -2.5554078 2
1.2928529 -0.8638505 -2.5530634 2
1.3062992 -0.86420965 -2.5490787 2
1.3197654 -0.86456823 -2.545085 2
1.3332516 -0.8649262 -2.5410824 2
1.3476032 -0.8660212 -2.5386803 2
1.3619946 -0.867115 -2.5362606 2
1.3772912 -0.8689445 -2.5354238 2
1.3917724 -0.8700356 -2.5329642 2
1.4071788 -0.8718619 -2.5320787 2
1.4217497 -0.87295026 -2.5295794 2
1.4372658 -0.8747732 -2.528645 2
1.4528418 -0.87659436 -2.5276842 2
1.4684776 -0.87841374 -2.5266967 2
1.4851084 -0.8809662 -2.5272522 2
1.5027641 -0.88425076 -2.5293374 2
1.5214747 -0.8882667 -2.532939 2
1.5441653 -0.89521486 -2.5427125 1
1.5680304 -0.9028908 -2.5539494 1
1.58916 -0.90836 -2.5604465 1
1.6084592 -0.9123582 -2.5637867 1
1.6218483 -0.9119562 -2.5578425 1
1.6250881 -0.9042293 -2.5365572 1
1.6250534 -0.89431196 -2.5107715 1
1.6382132 -0.8939168 -2.504929 1
1.6503279 -0.89279 -2.497566 1
1.6624228 -0.8916639 -2.4902117 1
1.6744976 -0.8905384 -2.4828663 1
1.6854777 -0.8886828 -2.4740222 1
1.6975027 -0.88755876 -2.466699 1
1.708413 -0.88570523 -2.457886 2
1.7203882 -0.8845827 -2.450585 2
1.7312286 -0.88273126 -2.4418027 2
1.7442786 -0.8823394 -2.4360092 2
1.7561938 -0.8812187 -2.4287348 2
1.7703785 -0.8815557 -2.424422 2
1.784583 -0.8818921 -2.4201007 2
1.799972 -0.8829559 -2.417238 2
1.8165756 -0.88474625 -2.4158208 2
1.8344237 -0.8872621 -2.415836 2
1.8523514 -0.8897756 -2.4158158 2
1.8703591 -0.8922867 -2.41576 2
1.894519 -0.89842784 -2.4228966 1
1.9188585 -0.9045636 -2.4299533 1
0.5986223 -0.98675704 -3.0845084 1
0.6119093 -0.9848114 -3.0746474 1
0.62336713 -0.9775075 -3.051731 1
0.6327862 -0.9648514 -3.015852 1
0.6427127 -0.9545001 -2.985691 1
0.6509522 -0.9403329 -2.9463735 1
0.65883243 -0.92617637 -2.9072156 1
0.66849196 -0.91737974 -2.8811352 1
0.6766701 -0.90553427 -2.8477883 2
0.6871525 -0.89980626 -2.829267 2
0.6981662 -0.8956089 -2.814472 2
0.7097708 -0.89294046 -2.803377 2
0.721671 -0.8910365 -2.7941315 2
0.7338966 -0.88989604 -2.786723 2
0.74610233 -0.8887562 -2.779323 2
0.7586733 -0.88837874 -2.773742 2
0.77203494 -0.8895242 -2.7717724 2
0.7870575 -0.89371306 -2.7769895 2
0.80593693 -0.90474606 -2.798324 1
0.8268167 -0.9188122 -2.8266952 1
1.0440788 -0.90764844 -2.7183545 1
1.0551946 -0.9049947 -2.7074764 1
1.0637914 -0.8993233 -2.6897922 2
1.0716237 -0.8929015 -2.6704662 2
1.0837396 -0.89176434 -2.6631062 2
1.0958356 -0.89062786 -2.6557553 2
1.1072568 -0.8887382 -2.6467226 2
1.1186382 -0.8868498 -2.6377075 2
1.1299796 -0.8849626 -2.6287103 2
1.1412811 -0.8830766 -2.6197307 2
1.1532375 -0.88194424 -2.6124415 2
1.1658783 -0.8815647 -2.6068296 2
1.1785191 -0.8811851 -2.6012177 2
1.1911601 -0.88080555 -2.5956059 2
1.2045354 -0.88117725 -2.5916488 2
1.2179308 -0.88154835 -2.587683 2
1.231346 -0.88191885 -2.5837083 2
1.2447813 -0.88228875 -2.5797248 2
1.257462 -0.881908 -2.574095 2
1.2717116 -0.8830267 -2.571731 2
1.2852067 -0.88339484 -2.5677211 2
1.2987217 -0.8837623 -2.563702 2
1.3114424 -0.88338035 -2.5580547 2
1.3241631 -0.8829984 -2.5524073 2
1.3368838 -0.8826164 -2.5467598 2
1.351293 -0.8837304 -2.544325 2
1.3657421 -0.8848432 -2.5418725 2
1.3810953 -0.8867021 -2.5409997 2
1.3965083 -0.8885593 -2.5401003 2
1.4119813 -0.89041466 -2.5391743 2
1.42662 -0.89152175 -2.5366375 2
1.4422027 -0.8933738 -2.535663 2
1.4578452 -0.8952241 -2.5346615 2
1.4735477 -0.89707255 -2.5336335 2
1.4902439 -0.8996645 -2.5341456 2
1.5107962 -0.905234 -2.54087 2
1.533416 -0.912288 -2.5506387 1
1.5629834 -0.9245467 -2.5711906 1
1.589968 -0.93456304 -2.586946 1
1.6123122 -0.9408519 -2.5948558 1
1.6348361 -0.94713557 -2.6026862 1
1.653524 -0.950441 -2.6042948 1
1.670284 -0.95225775 -2.6027975 1
1.6809609 -0.94961715 -2.5921142 1
1.6771044 -0.9365864 -2.560148 1
1.6749963 -0.92504984 -2.5313675 1
1.6789113 -0.9179724 -2.5117996 1
1.6879658 -0.91460717 -2.4998555 1
1.6969403 -0.9112444 -2.487947 1
1.7047513 -0.90714324 -2.4745739 1
1.7146498 -0.904526 -2.464236 2
1.7255921 -0.90265083 -2.455416 2
1.7364947 -0.9007768 -2.4466136 2
1.7484809 -0.89964354 -2.4393113 2
1.760447 -0.8985109 -2.4320178 2
1.7735369 -0.89811784 -2.4262064 2
1.7889339 -0.89920217 -2.4233332 2
1.8043706 -0.9002853 -2.420442 2
1.8221945 -0.90284336 -2.4204535 2
1.8389145 -0.9046613 -2.4189737 2
1.8568879 -0.9072149 -2.4189188 2
1.8785512 -0.9119777 -2.423169 1
1.9003544 -0.91673625 -2.4273567 1
1.9222972 -0.92149067 -2.4314828 1
0.59806585 -1.0042293 -3.0876632 1
0.6109059 -1.0007089 -3.074053 1
0.6229024 -0.9948628 -3.054885 1
0.6323787 -0.9820392 -3.0190384 1
0.6426337 -0.9723269 -2.990756 1
0.6512269 -0.9587461 -2.9533243 1
0.6597754 -0.94595027 -2.9178898 1
0.66983116 -0.9378114 -2.8936508 1
0.67811525 -0.9258071 -2.8603113 2
0.68772197 -0.91768175 -2.8362715 2
0.6988008 -0.9134306 -2.8214657 2
0.7101243 -0.90995574 -2.808529 2
0.72207654 -0.9080295 -2.7992678 2
0.73435307 -0.90687716 -2.79184 2
0.746984 -0.9064979 -2.7862325 2
0.75999916 -0.90689075 -2.7824318 2
0.77382255 -0.90882677 -2.7822273 2
0.78972685 -0.9146188 -2.790986 2
0.81200325 -0.9319749 -2.8265781 1
0.8283764 -0.93775284 -2.835129 1
1.0679227 -0.919588 -2.701097 1
1.0771009 -0.91461027 -2.6851575 2
1.0880603 -0.91193014 -2.6743598 2
1.1008908 -0.91154486 -2.6686637 2
1.1130675 -0.9103955 -2.6612802 2
1.1252245 -0.90924674 -2.6539056 2
1.1366878 -0.90733516 -2.6448617 2
1.1481112 -0.9054248 -2.6358352 2
1.1601883 -0.90427846 -2.6284962 2
1.1722454 -0.9031327 -2.6211658 2
1.1857095 -0.9035121 -2.6171658 2
1.19847 -0.9031289 -2.6115007 2
1.211964 -0.9035074 -2.6074874 2
1.225478 -0.9038853 -2.6034653 1
1.2397653 -0.9050237 -2.6010776 1
1.2533292 -0.9054001 -2.5970333 1
1.2661396 -0.9050154 -2.591346 1
1.2781668 -0.9038706 -2.584029 1
1.2917606 -0.9042461 -2.5799716 2
1.304571 -0.9038614 -2.574284 2
1.3165683 -0.9027175 -2.5669806 2
1.3285456 -0.90157413 -2.5596857 2
1.3413361 -0.9011901 -2.5540073 2
1.355813 -0.90232277 -2.5515351 2
1.3694766 -0.9026962 -2.5474467 2
1.3866127 -0.9061001 -2.5497262 2
1.4038485 -0.909501 -2.5519617 2
1.4247165 -0.9159277 -2.5604944 1
1.4421918 -0.9193214 -2.5626235 1
1.4507365 -0.91514635 -2.5489428 1
1.4719636 -0.92156225 -2.557316 1
1.4878324 -0.9234368 -2.5562036 1
1.50656 -0.9275766 -2.5597541 1
1.5301219 -0.9354898 -2.5710459 1
1.5567622 -0.94566154 -2.5869033 1
1.5769415 -0.9505415 -2.5917869 1
1.6069891 -0.96296203 -2.612064 1
1.6334447 -0.9723557 -2.626026 1
1.6551955 -0.97797215 -2.6321893 1
1.6761031 -0.98283017 -2.6367495 1
1.6930993 -0.9846709 -2.6351364 1
1.7040188 -0.981992 -2.6243563 1
1.712813 -0.9778094 -2.6105647 1
1.7152511 -0.9691156 -2.5877302 1
1.7174697 -0.96042836 -2.5649931 1
1.7088422 -0.9442297 -2.5272968 1
1.7094493 -0.9348072 -2.5032976 1
1.7141476 -0.9283965 -2.485392 1
1.7197788 -0.9227416 -2.4690497 2
1.7296807 -0.9200932 -2.4587214 2
1.7406352 -0.91819686 -2.4499032 2
1.7515498 -0.9163017 -2.4411027 2
1.7646894 -0.91590714 -2.4352694 2
1.7789718 -0.91626203 -2.430906 2
1.7932738 -0.91661626 -2.4265342 2
1.8099209 -0.91846746 -2.425076 2
1.8266277 -0.9203169 -2.4235914 2
1.8433944 -0.9221645 -2.42208 2
1.8626057 -0.9255061 -2.4234385 2
1.8855238 -0.9310875 -2.4290836 1
1.9049646 -0.93442225 -2.43034 1
1.928172 -0.93999493 -2.4358568 1
0.59726727 -1.0209976 -3.0889225 1
0.60965455 -1.0158613 -3.0715802 1
0.62192214 -1.0107285 -3.0542908 1
0.6316991 -0.99852395 -3.0203428 1
0.64199704 -0.98868597 -2.992085 1
0.6506386 -0.9749273 -2.954693 1
0.6604078 -0.9651052 -2.92667 1
0.670544 -0.9568602 -2.9024315 1
0.679541 -0.94626725 -2.8727775 2
0.6892482 -0.93803513 -2.8487294 2
0.6997558 -0.9321611 -2.8302476 2
0.71115345 -0.92864263 -2.8172922 2
0.72282445 -0.92591 -2.8061893 2
0.73552513 -0.9255286 -2.800551 2
0.7482259 -0.92514724 -2.7949123 2
0.7620761 -0.92711353 -2.7946851 2
0.7763792 -0.92986035 -2.7962306 2
0.7915684 -0.9341686 -2.8013303 1
0.81266046 -0.9494165 -2.831443 1
0.8273827 -0.9521507 -2.8328025 1
1.0929941 -0.93305814 -2.6872497 1
1.1065668 -0.93344474 -2.683198 2
1.1188545 -0.9322816 -2.6757689 2
1.1317847 -0.93189335 -2.6700284 2
1.1433699 -0.9299574 -2.6609375 2
1.1555977 -0.9287962 -2.6535351 2
1.1671131 -0.92686224 -2.6444752 2
1.179291 -0.9257025 -2.637095 2
1.1928737 -0.92608875 -2.6330385 2
1.205754 -0.925702 -2.6273203 1
1.2186344 -0.9253152 -2.621602 1
1.2337416 -0.92724377 -2.6208167 1
1.2481565 -0.928399 -2.6183648 1
1.2610867 -0.92801076 -2.6126244 1
1.2755613 -0.9291643 -2.610146 1
1.2853826 -0.9256931 -2.5978906 1
1.2975007 -0.92453516 -2.5905368 1
1.310401 -0.9241478 -2.5848098 1
1.3289863 -0.9291482 -2.5903757 1
1.3427786 -0.9295281 -2.5862262 1
1.3540944 -0.9276002 -2.577255 1
1.3645283 -0.9249047 -2.5667012 1
1.3817189 -0.92835885 -2.5689387 1
1.660418 -1.0089254 -2.6662793 1
1.6755072 -1.0092664 -2.6615543 1
1.6986302 -1.0157187 -2.6690533 1
1.7057456 -1.0099466 -2.6520777 1
1.716808 -1.0072322 -2.641245 1
1.7247156 -1.0022304 -2.6258912 1
1.7293786 -0.99494374 -2.6060565 1
1.7339194 -0.97733796 -2.560616 1
1.723002 -0.9594023 -2.5200646 1
1.7202778 -0.9475732 -2.4916663 1
1.7248949 -0.941082 -2.473826 2
1.7337583 -0.9376396 -2.4619956 2
1.7436534 -0.93496025 -2.4516811 2
1.7557316 -0.93380344 -2.444345 2
1.7689211 -0.9334074 -2.4384894 2
1.7832521 -0.93377125 -2.434101 2
