ply
format ascii 1.0
comment v20 pointcloud — conf>=1, radius=1.7m, n=6631
element vertex 1391
property float x
property float y
property float z
property uchar confidence
end_header
1.9137886 -0.26805916 -2.481761 2
1.9290494 -0.2681963 -2.4792528 2
1.9456632 -0.2685995 -2.4782853 2
1.9610138 -0.26873386 -2.475737 2
1.9777373 -0.2691336 -2.4747207 2
1.9931777 -0.2692651 -2.4721327 2
2.008658 -0.26939538 -2.4695268 2
2.024178 -0.2695244 -2.4669032 2
2.0397382 -0.2696522 -2.4642618 2
2.053955 -0.26951355 -2.4600754 2
2.0695848 -0.26963913 -2.457403 2
2.0852547 -0.26976344 -2.4547126 2
2.0995514 -0.26962236 -2.4504907 2
2.1138682 -0.26948068 -2.44626 2
2.1296375 -0.2696018 -2.4435253 2
2.1454468 -0.26972172 -2.440773 2
2.1612961 -0.2698404 -2.4380028 2
2.1786478 -0.27022034 -2.4367068 2
2.1975322 -0.27086067 -2.4368715 2
2.2179787 -0.2717605 -2.4384837 2
2.2385252 -0.2726571 -2.4400513 2
2.2561662 -0.273028 -2.4386265 1
2.2753797 -0.27365798 -2.4386446 1
2.2977178 -0.27480686 -2.4415576 1
2.315578 -0.27517086 -2.4400353 1
0.63844395 -0.31209996 -2.9829783 1
0.6441021 -0.30490497 -2.9333916 1
0.6518402 -0.3001962 -2.8999944 1
0.66092324 -0.2970399 -2.8766956 2
0.67049634 -0.2945061 -2.8574576 2
0.68027455 -0.29228485 -2.8402677 2
0.69064265 -0.2906829 -2.827094 2
0.70093095 -0.2890835 -2.813956 2
0.7118888 -0.28810093 -2.8047986 2
0.7224221 -0.28681278 -2.7936907 2
0.7328956 -0.2855265 -2.7826097 2
0.74411845 -0.2848546 -2.7754738 2
0.7549068 -0.28387734 -2.766392 2
0.76650435 -0.2835126 -2.7612286 2
0.7776674 -0.28284255 -2.7541194 2
0.7888105 -0.28217307 -2.747019 2
0.79993355 -0.28150433 -2.7399275 2
0.8110368 -0.28083614 -2.7328448 2
0.8225944 -0.28047264 -2.7276993 2
0.83366776 -0.27980542 -2.7206302 2
0.84521544 -0.27944222 -2.715489 2
0.856763 -0.27907902 -2.710348 2
0.8683107 -0.27871585 -2.7052069 2
0.88038266 -0.2786551 -2.7019718 2
0.89247453 -0.27859378 -2.6987278 2
0.9045863 -0.27853173 -2.695475 2
0.9167181 -0.27846918 -2.6922135 2
0.92886984 -0.27840593 -2.688943 2
0.94104147 -0.2783421 -2.6856635 2
0.95381725 -0.2785782 -2.6842546 2
0.9660387 -0.27851275 -2.680953 2
0.9782802 -0.2784467 -2.6776426 2
0.99176955 -0.2789793 -2.6780553 2
1.0046948 -0.2792107 -2.6765797 2
1.0170261 -0.2791418 -2.6732292 2
1.030665 -0.27966973 -2.6735754 2
1.04371 -0.27989733 -2.6720467 2
1.0574588 -0.2804218 -2.672344 2
1.0712672 -0.28094435 -2.6726148 2
1.0844518 -0.28116757 -2.6710238 2
1.0983701 -0.28168675 -2.6712458 2
1.1123481 -0.28220397 -2.6714408 2
1.1263859 -0.2827193 -2.6716096 2
1.1404837 -0.28323278 -2.6717515 2
1.1546413 -0.28374436 -2.671867 2
1.168115 -0.28395852 -2.6701472 2
1.1823822 -0.28446665 -2.6702137 2
1.1959457 -0.28467795 -2.668454 2
1.2095491 -0.28488806 -2.6666765 2
1.2231923 -0.28509685 -2.6648815 2
1.237669 -0.2855984 -2.6648548 2
1.251402 -0.28580442 -2.6630197 2
1.265175 -0.2860091 -2.6611667 2
1.2789878 -0.28621262 -2.659296 2
1.2936738 -0.28670758 -2.659176 2
1.3075763 -0.2869082 -2.6572657 2
1.3215188 -0.28710765 -2.6553373 2
1.3346378 -0.28701398 -2.6516361 2
1.3477768 -0.28691968 -2.647926 2
1.3618189 -0.287116 -2.6459532 2
1.3750076 -0.28702012 -2.642221 2
1.3873132 -0.28663307 -2.6367426 2
1.4014452 -0.28682652 -2.6347299 2
1.4156169 -0.2870187 -2.6326995 2
1.4307617 -0.28749925 -2.6323752 2
1.4440801 -0.28739932 -2.628585 2
1.4555124 -0.2867208 -2.621356 2
1.4669248 -0.28604293 -2.6141357 1
1.4802631 -0.28594235 -2.610337 1
1.4955875 -0.28641728 -2.609933 1
1.5099787 -0.28660253 -2.6078048 1
1.5244097 -0.28678656 -2.6056588 2
1.5398935 -0.28725648 -2.6051836 2
1.5544143 -0.28743765 -2.6029978 1
1.5679421 -0.2873312 -2.5991147 1
1.5804472 -0.2869379 -2.5935473 1
1.594005 -0.28683037 -2.5896509 1
1.6075827 -0.2867223 -2.5857456 1
1.6211803 -0.28661358 -2.5818312 2
1.6315498 -0.28564954 -2.5729358 2
1.6407868 -0.28440216 -2.562405 2
1.6532718 -0.2840095 -2.5568466 2
1.665757 -0.2836168 -2.5512884 2
1.678242 -0.28322414 -2.5457299 2
1.690727 -0.28283146 -2.5401716 2
1.7043546 -0.2827218 -2.536244 2
1.7180021 -0.28261155 -2.5323074 2
1.7316695 -0.2825006 -2.528362 2
1.745357 -0.28238907 -2.5244079 2
1.7590644 -0.2822769 -2.5204446 2
1.7727916 -0.28216413 -2.5164728 2
1.7877413 -0.28233182 -2.514096 2
1.8003061 -0.28193665 -2.508502 2
1.8140932 -0.28182203 -2.5045035 2
1.8266679 -0.28142652 -2.4989052 2
1.8404851 -0.28131092 -2.494893 2
1.8543221 -0.28119466 -2.4908724 2
1.8669168 -0.28079852 -2.4852653 2
1.8807837 -0.28068134 -2.481231 2
1.8946706 -0.28056356 -2.4771879 2
1.9098694 -0.28072342 -2.4747002 2
1.9264103 -0.28116006 -2.4737544 2
1.941699 -0.28131714 -2.4712267 2
1.9583496 -0.2817503 -2.470232 2
1.973728 -0.28190455 -2.4676645 2
1.9891462 -0.28205755 -2.465079 2
2.0046046 -0.28220925 -2.4624758 2
2.0201027 -0.28235975 -2.459855 2
2.0342686 -0.28223312 -2.4556878 2
2.0498366 -0.28238142 -2.4530358 2
2.0654442 -0.28252843 -2.450366 2
2.081092 -0.28267422 -2.4476786 2
2.0967796 -0.28281873 -2.444973 2
2.1110852 -0.28268772 -2.4407437 2
2.1268425 -0.28283006 -2.4380074 2
2.1440816 -0.28324473 -2.436751 2
2.1599286 -0.28338426 -2.4339745 2
2.177277 -0.28379548 -2.4326692 2
2.1976287 -0.2847502 -2.4343057 2
2.2195618 -0.2859741 -2.4373777 2
2.240123 -0.2869222 -2.438921 2
2.2577808 -0.28732368 -2.437478 1
2.2770097 -0.28799474 -2.437475 1
2.300883 -0.28947657 -2.4418225 1
2.3294902 -0.2917664 -2.450481 1
0.6244904 -0.32508725 -2.9826314 1
0.63243794 -0.31989715 -2.947055 1
0.6419094 -0.31663516 -2.9236155 1
0.65026 -0.3124204 -2.8942673 1
0.65934247 -0.3091707 -2.871001 2
0.6685792 -0.30624548 -2.8498018 2
0.6783439 -0.3039623 -2.8326392 2
0.68869615 -0.3023193 -2.8194869 2
0.6989687 -0.30067882 -2.80637 2
0.70953506 -0.2993585 -2.7952583 2
0.7200417 -0.29804003 -2.784173 2
0.730882 -0.2970404 -2.7750752 2
0.7416824 -0.29604203 -2.765995 2
0.75285643 -0.29536122 -2.7588844 2
0.76401055 -0.2946811 -2.7517827 2
0.77557814 -0.29431728 -2.7466328 2
0.7867024 -0.29363802 -2.7395444 2
0.79826 -0.29327452 -2.7343988 2
0.8093543 -0.29259628 -2.7273238 2
0.8204285 -0.29191864 -2.7202578 2
0.8319663 -0.29155576 -2.715121 2
0.84350395 -0.2911929 -2.7099843 2
0.8550416 -0.29083002 -2.7048478 2
0.8670926 -0.2907803 -2.7016184 2
0.8791635 -0.29072997 -2.6983805 2
0.8912543 -0.29067907 -2.6951334 2
0.9028219 -0.29031524 -2.6899834 2
0.91549575 -0.2905753 -2.6886127 2
0.9276465 -0.2905225 -2.6853392 2
0.9398171 -0.29046905 -2.6820567 2
0.95200765 -0.29041496 -2.6787653 2
0.9648112 -0.29067096 -2.6773367 2
0.9770515 -0.29061535 -2.6740232 2
0.9899249 -0.2908691 -2.6725638 2
1.002838 -0.29112163 -2.6710863 2
1.0157912 -0.29137295 -2.6695914 2
1.0287842 -0.291623 -2.6680787 2
1.041817 -0.29187176 -2.666548 2
1.0555526 -0.29242778 -2.6668406 2
1.069348 -0.29298195 -2.6671064 2
1.0825205 -0.29322636 -2.6655138 2
1.0964255 -0.29377702 -2.6657307 2
1.1103904 -0.2943258 -2.6659212 2
1.1244153 -0.29487273 -2.6660848 2
1.1377772 -0.29511118 -2.6644077 2
1.1519116 -0.29565462 -2.6645226 2
1.1653633 -0.29589024 -2.6628058 2
1.178855 -0.2961246 -2.661071 2
1.1923864 -0.2963577 -2.6593184 2
1.2059578 -0.29658955 -2.6575482 2
1.219569 -0.29682013 -2.6557603 2
1.2340126 -0.29735386 -2.6557374 2
1.2477136 -0.29758164 -2.6539094 2
1.2614545 -0.29780817 -2.6520638 2
1.2744129 -0.29772994 -2.6484306 2
1.2882235 -0.29795426 -2.6465538 2
1.3012317 -0.29787448 -2.6428983 2
1.31426 -0.29779404 -2.6392338 2
1.327308 -0.29771304 -2.6355608 2
1.3412484 -0.29793325 -2.6336262 2
1.3552287 -0.2981522 -2.6316738 2
1.3683566 -0.2980687 -2.6279652 2
1.3815044 -0.2979845 -2.6242476 2
1.3946723 -0.2978997 -2.620521 2
1.4097042 -0.29841498 -2.6202364 2
1.4238639 -0.2986283 -2.618204 2
1.4361794 -0.29824096 -2.6127212 2
1.4475429 -0.2975542 -2.6055262 2
1.4588865 -0.29686812 -2.5983403 2
1.472154 -0.29678014 -2.5945694 2
1.4874054 -0.2972885 -2.594187 2
1.5027165 -0.29779494 -2.5937781 2
1.5170857 -0.2980017 -2.5916526 2
1.5304829 -0.29790968 -2.587824 2
1.5449218 -0.29811424 -2.5856676 2
1.557337 -0.29772377 -2.58014 2
1.5697523 -0.2973333 -2.5746129 2
1.5832193 -0.29723907 -2.570753 2
1.5977678 -0.29744017 -2.568548 2
1.6112847 -0.29734436 -2.564666 2
1.6237398 -0.29695264 -2.559121 2
1.636195 -0.29656088 -2.5535758 2
1.6475486 -0.29587448 -2.5463853 2
1.6588821 -0.29518867 -2.5392036 2
1.6724389 -0.29509166 -2.535304 2
1.6860155 -0.29499397 -2.5313957 2
1.6996121 -0.29489568 -2.5274782 2
1.7143801 -0.29508987 -2.525175 2
1.7268652 -0.2946972 -2.5196168 2
1.7405216 -0.29459703 -2.5156727 2
1.7553793 -0.2947884 -2.5133297 2
1.7690856 -0.29468668 -2.5093637 2
1.782812 -0.2945843 -2.5053885 2
1.7965581 -0.29448134 -2.5014045 2
1.809103 -0.29408675 -2.4958193 2
1.8228792 -0.2939828 -2.4918222 2
1.8366753 -0.29387823 -2.4878159 2
1.8504912 -0.29377308 -2.483801 2
1.8630658 -0.29337758 -2.4782026 2
1.878183 -0.2935608 -2.4757442 2
1.8920588 -0.29345372 -2.4717026 2
1.9059546 -0.29334605 -2.4676518 2
1.9224724 -0.29381454 -2.4667058 2
1.937739 -0.29399306 -2.4641807 2
1.9530454 -0.29417035 -2.461638 2
1.9697229 -0.29463384 -2.4606209 2
1.985119 -0.29480827 -2.458038 2
2.0005553 -0.29498145 -2.4554377 2
2.0146704 -0.29486686 -2.4512892 2
2.0315473 -0.2953241 -2.4501834 2
2.047103 -0.29549354 -2.4475296 2
2.061308 -0.2953761 -2.4433413 2
2.0783343 -0.2958286 -2.4421687 2
2.0940096 -0.29599428 -2.4394617 2
2.1083045 -0.29587403 -2.4352336 2
2.1254804 -0.2963218 -2.4339943 2
2.1412754 -0.29648376 -2.4312341 2
2.1585612 -0.29692814 -2.429946 2
2.1773672 -0.297654 -2.4301171 2
2.1977236 -0.29866046 -2.4317336 2
2.21966 -0.2999466 -2.4347827 2
2.240226 -0.30094647 -2.436306 2
2.259391 -0.30166107 -2.4363172 1
2.278636 -0.3023731 -2.436293 1
2.3055627 -0.30449036 -2.4435277 1
0.6203588 -0.33468726 -2.9587283 1
0.62939376 -0.3306661 -2.9312506 1
0.6388148 -0.32731226 -2.9078655 1
0.6483691 -0.32429394 -2.8865535 2
0.65744114 -0.32095104 -2.863324 2
0.666999 -0.31827232 -2.8441424 2
0.6767599 -0.315927 -2.827003 2
0.68675387 -0.31391403 -2.8118923 2
0.6973733 -0.31256086 -2.8007674 2
0.7075603 -0.31088153 -2.787703 2
0.7180501 -0.30953246 -2.776636 2
0.72887254 -0.3085126 -2.767553 2
0.7400576 -0.30782107 -2.7604413 2
0.7512227 -0.3071302 -2.753338 2
0.76236796 -0.30643994 -2.746244 2
0.7734932 -0.3057503 -2.7391586 2
0.78504086 -0.3053871 -2.7340176 2
0.79613614 -0.30469844 -2.7269456 2
0.8076738 -0.30433556 -2.7218091 2
0.8192115 -0.30397266 -2.7166724 2
0.83026695 -0.3032852 -2.709618 2
0.8417947 -0.30292264 -2.7044861 2
0.8538246 -0.30288404 -2.7012625 2
0.8658745 -0.30284476 -2.6980302 2
0.8774222 -0.30248156 -2.6928892 2
0.88950205 -0.30244136 -2.6896434 2
0.9016018 -0.30240053 -2.686389 2
0.91372144 -0.30235907 -2.6831255 2
0.9258611 -0.302317 -2.6798532 2
0.9380207 -0.3022743 -2.676572 2
0.9507822 -0.30255234 -2.6751552 2
0.9629916 -0.30250812 -2.6718519 2
0.9758229 -0.302784 -2.6704037 2
0.9886942 -0.30305856 -2.6689382 2
1.0009834 -0.30301183 -2.6655993 2
1.0139244 -0.30328426 -2.6641026 2
1.0269053 -0.30355546 -2.662588 2
1.0405779 -0.3041446 -2.6628978 2
1.0536485 -0.30441296 -2.6613433 2
1.0674307 -0.30499864 -2.6616042 2
1.0805912 -0.3052642 -2.6600099 2
1.0944831 -0.30584648 -2.660222 2
1.1084349 -0.30642685 -2.6604075 2
1.1224467 -0.30700535 -2.6605663 2
1.1350749 -0.3069479 -2.6570766 2
1.1491863 -0.30752322 -2.657191 2
1.1626159 -0.30778033 -2.6554768 2
1.1760854 -0.30803615 -2.6537447 2
1.1895949 -0.3082907 -2.651995 2
1.2031441 -0.308544 -2.6502273 2
1.2175148 -0.3091112 -2.6502264 2
1.2311538 -0.3093617 -2.6484187 2
1.2448328 -0.3096109 -2.6465936 2
1.2585516 -0.3098589 -2.6447504 2
1.271489 -0.3097917 -2.6411228 2
1.283615 -0.3094103 -2.6357243 2
1.2965823 -0.30934224 -2.6320837 2
1.3095696 -0.30927348 -2.628434 2
1.3217156 -0.30889145 -2.6230264 2
1.335604 -0.30913413 -2.6211078 2
1.348651 -0.3090635 -2.6174316 2
1.3626093 -0.30930394 -2.615482 2
1.3757062 -0.30923173 -2.6117835 2
1.3897341 -0.30947 -2.6098027 2
1.403802 -0.309707 -2.6078043 2
1.4169787 -0.30963227 -2.6040704 2
1.4301754 -0.30955696 -2.6003275 2
1.4424411 -0.3091712 -2.5948668 2
1.4547068 -0.3087854 -2.589406 2
1.4679433 -0.30870882 -2.5856454 2
1.4821807 -0.30894047 -2.5835714 2
1.4964579 -0.3091709 -2.5814798 2
1.5107751 -0.30940005 -2.5793703 2
1.5231106 -0.3090121 -2.5738785 2
1.5374876 -0.3092394 -2.5717425 2
1.549843 -0.3088508 -2.5662417 2
1.5621984 -0.30846217 -2.5607412 2
1.5766551 -0.30868694 -2.5585694 2
1.5911518 -0.30891046 -2.55638 2
1.6056883 -0.30913273 -2.554173 2
1.6181036 -0.30874225 -2.5486457 2
1.6305189 -0.30835176 -2.5431185 2
1.6429341 -0.3079613 -2.5375912 2
1.6553494 -0.30757082 -2.5320637 2
1.6688851 -0.30748478 -2.5281699 2
1.6824408 -0.30739814 -2.5242672 2
1.6960164 -0.30731094 -2.5203557 2
1.7096119 -0.30722305 -2.5164351 2
1.7243879 -0.30743775 -2.5141215 2
1.7380333 -0.30734837 -2.5101788 2
1.7516986 -0.30725825 -2.5062273 2
1.765384 -0.3071676 -2.502267 2
1.7790891 -0.30707625 -2.4982975 2
1.7928144 -0.3069843 -2.4943192 2
1.8065596 -0.3068917 -2.4903321 2
1.8190944 -0.30649748 -2.4847517 2
1.8328694 -0.30640393 -2.480751 2
1.8466644 -0.30630982 -2.4767418 2
1.8604795 -0.30621502 -2.4727237 2
1.8743143 -0.30611962 -2.4686966 2
1.8881692 -0.3060236 -2.4646606 2
1.9033339 -0.3062261 -2.462174 2
1.9185387 -0.30642733 -2.4596696 2
1.9337832 -0.30662733 -2.4571471 2
1.9503876 -0.30712426 -2.4561517 2
1.9657218 -0.30732143 -2.4535894 2
1.981096 -0.30751735 -2.4510093 2
1.9965101 -0.307712 -2.4484115 2
2.011964 -0.3079054 -2.445796 2
2.027458 -0.30809754 -2.4431627 2
2.0429919 -0.30828846 -2.4405117 2
2.0585654 -0.3084781 -2.4378428 2
2.074179 -0.3086665 -2.4351563 2
2.0898325 -0.3088536 -2.4324517 2
2.1069455 -0.30933455 -2.43123 2
2.1226885 -0.30951887 -2.4284859 2
2.1399112 -0.30999637 -2.427215 2
2.1571937 -0.310472 -2.4259176 2
2.1759956 -0.31123954 -2.4260764 2
2.1963465 -0.31229812 -2.4276776 2
2.218277 -0.31364673 -2.430708 2
2.2388375 -0.3146987 -2.4322157 2
2.260997 -0.3160401 -2.435144 2
2.284786 -0.31767005 -2.4394794 1
2.3041563 -0.3184197 -2.439385 1
0.617939 -0.3461264 -2.9469068 1
0.62636197 -0.34131008 -2.9154832 1
0.63663787 -0.33888617 -2.898136 1
0.64617074 -0.33578545 -2.876862 2
0.6555439 -0.33268976 -2.855659 2
0.66508925 -0.32993874 -2.8365083 2
0.6751782 -0.32787088 -2.821373 2
0.6851673 -0.32580614 -2.806282 2
0.69541836 -0.32408327 -2.7932034 2
0.7059612 -0.32270136 -2.7821233 2
0.71644413 -0.32132128 -2.7710702 2
0.72725874 -0.3202809 -2.761998 2
0.7384349 -0.3195793 -2.7548935 2
0.7495911 -0.31887832 -2.747798 2
0.7607274 -0.31817794 -2.7407115 2
0.7718437 -0.31747824 -2.7336338 2
0.78338134 -0.31711537 -2.728497 2
0.794919 -0.3167525 -2.7233605 2
0.8059956 -0.31605396 -2.7163005 2
0.81752324 -0.3156914 -2.7111683 2
0.829051 -0.31532884 -2.706036 2
0.8405787 -0.31496626 -2.700904 2
0.8526076 -0.3149381 -2.6976774 2
0.86465645 -0.3149092 -2.6944418 2
0.87620413 -0.31454602 -2.6893008 2
0.8882829 -0.31451625 -2.686052 2
0.90038157 -0.31448582 -2.6827943 2
0.91305125 -0.3147876 -2.6814113 2
0.92519975 -0.3147556 -2.6781313 2
0.9373683 -0.31472299 -2.6748428 2
0.9495567 -0.31468976 -2.671545 2
0.9623561 -0.31498742 -2.6701043 2
0.97459435 -0.31495267 -2.6667845 2
0.98685265 -0.31491718 -2.6634557 2
0.99975157 -0.3152117 -2.6619706 2
1.0126905 -0.31550503 -2.6604676 2
1.0256693 -0.31579703 -2.658947 2
1.038688 -0.3160878 -2.6574085 2
1.0524073 -0.31670663 -2.6576867 2
1.0655158 -0.31699458 -2.6561084 2
1.0786641 -0.31728128 -2.6545122 2
1.0925429 -0.31789508 -2.6547194 2
1.1064816 -0.31850705 -2.6549 2
1.1197695 -0.3187893 -2.6532416 2
1.1330973 -0.31907037 -2.6515656 2
1.1464651 -0.31935018 -2.6498718 2
1.1598727 -0.3196287 -2.6481602 2
1.17332 -0.319906 -2.6464307 2
1.1868075 -0.320182 -2.6446836 2
1.2011051 -0.32078266 -2.6447043 2
1.2146822 -0.32105586 -2.6429174 2
1.2290896 -0.32165307 -2.6428893 2
1.2419561 -0.32159853 -2.6392899 2
1.2556529 -0.32186794 -2.6374495 2
1.2677491 -0.32148752 -2.632064 2
1.2806754 -0.32143104 -2.628438 2
1.2927816 -0.3210503 -2.6230483 2
1.3057379 -0.32099292 -2.6194088 2
1.3187141 -0.32093492 -2.6157606 2
1.3317103 -0.32087627 -2.6121035 2
1.3447264 -0.320817 -2.6084373 2
1.3577625 -0.32075712 -2.6047623 2
1.3708185 -0.3206966 -2.6010785 2
1.3838944 -0.32063547 -2.597386 2
1.3979104 -0.32089487 -2.5954034 2
1.4110361 -0.32083213 -2.5916884 2
1.423242 -0.32044825 -2.5862544 2
1.4363977 -0.32038456 -2.5825262 2
1.4495734 -0.3203203 -2.578789 2
1.462769 -0.3202554 -2.575043 2
1.4769645 -0.32050914 -2.5729806 2
1.4911997 -0.32076162 -2.5709004 2
1.5044751 -0.32069424 -2.567119 2
1.5177704 -0.32062617 -2.5633285 2
1.5310857 -0.32055753 -2.5595293 2
1.544421 -0.32048818 -2.555721 2
1.5567365 -0.32010084 -2.5502381 2
1.5701016 -0.3200306 -2.5464168 2
1.5834867 -0.31995976 -2.5425863 2
1.5979613 -0.32020473 -2.5403998 2
1.6113963 -0.3201323 -2.5365472 2
1.6248512 -0.32005924 -2.5326858 2
1.638326 -0.3199855 -2.5288155 2
1.6518209 -0.31991124 -2.5249362 2
1.6653355 -0.31983626 -2.5210483 2
1.6788702 -0.3197607 -2.5171514 2
1.6924249 -0.31968448 -2.5132453 2
1.7071488 -0.3199216 -2.5109477 2
1.7207533 -0.31984383 -2.5070198 2
1.7343776 -0.31976548 -2.5030828 2
1.7480221 -0.3196864 -2.4991372 2
1.7616863 -0.31960678 -2.4951825 2
1.7753706 -0.3195265 -2.4912188 2
1.7890749 -0.3194456 -2.4872465 2
1.802799 -0.31936407 -2.4832652 2
1.8153139 -0.31897044 -2.4776936 2
1.8290681 -0.31888798 -2.4736989 2
1.842842 -0.31880486 -2.4696953 2
1.8566359 -0.31872112 -2.465683 2
1.8704499 -0.31863678 -2.4616618 2
1.8855627 -0.3188617 -2.4591908 2
1.9007155 -0.3190853 -2.4567022 2
1.915908 -0.3193077 -2.454196 2
1.9311404 -0.31952888 -2.451672 2
1.9464129 -0.31974873 -2.44913 2
1.961725 -0.31996736 -2.4465704 2
1.9770772 -0.32018477 -2.443993 2
1.9938182 -0.32070857 -2.4429262 2
2.00926 -0.32092315 -2.440309 2
2.024742 -0.32113642 -2.4376738 2
2.0402637 -0.32134846 -2.435021 2
2.055825 -0.32155922 -2.4323506 2
2.0714266 -0.3217688 -2.4296622 2
2.0884764 -0.32228288 -2.4284577 2
2.1041677 -0.3224896 -2.4257293 2
2.1213274 -0.32300022 -2.424476 2
2.138547 -0.32350898 -2.423196 2
2.1558263 -0.3240159 -2.4218893 2
2.174624 -0.32482508 -2.4220357 2
2.1949697 -0.32593575 -2.4236212 2
2.2168937 -0.32734686 -2.426633 2
2.2389374 -0.32875425 -2.4295917 2
2.262599 -0.33046082 -2.4339585 1
2.2909255 -0.33307105 -2.4426348 1
2.322488 -0.33627972 -2.4541278 1
0.6152468 -0.3571306 -2.9331098 1
0.624215 -0.352883 -2.9057403 1
0.6344673 -0.3503976 -2.8884249 2
0.6439786 -0.34721446 -2.8671892 2
0.6536509 -0.3443868 -2.8480067 2
0.6635142 -0.34191358 -2.8308644 2
0.6735985 -0.33979395 -2.8157492 2
0.68358296 -0.3376774 -2.8006783 2
0.6938282 -0.3359132 -2.7876163 2
0.7043642 -0.33450028 -2.77655 2
0.7148404 -0.33308932 -2.7655106 2
0.7260375 -0.33237663 -2.7584004 2
0.7372147 -0.33166462 -2.7512991 2
0.74837196 -0.3309532 -2.7442067 2
0.7595093 -0.3302424 -2.737123 2
0.77062666 -0.3295323 -2.7300484 2
0.78216434 -0.3291694 -2.724912 2
0.793702 -0.32880652 -2.7197752 2
0.8047795 -0.32809758 -2.7127182 2
0.8163073 -0.32773504 -2.707586 2
0.82783496 -0.32737246 -2.7024539 2
0.83936274 -0.3270099 -2.6973217 2
0.8513906 -0.32699212 -2.694092 2
0.86343837 -0.32697368 -2.6908536 2
0.87550604 -0.32695463 -2.687606 2
0.88706374 -0.32659113 -2.6824605 2
0.89970136 -0.3269146 -2.6810846 2
0.9118289 -0.32689372 -2.6778107 2
0.9239764 -0.32687214 -2.6745276 2
0.9361439 -0.32685 -2.6712358 2
0.9489112 -0.32716942 -2.6698022 2
0.9611285 -0.32714567 -2.6664882 2
0.97336566 -0.32712132 -2.663165 2
0.98623276 -0.32743755 -2.6616871 2
0.9985199 -0.32741162 -2.658342 2
1.0114566 -0.32772574 -2.656833 2
1.0244334 -0.3280386 -2.6553059 2
1.0380996 -0.32869026 -2.6555972 2
1.051166 -0.32900032 -2.6540303 2
1.0642724 -0.32930908 -2.6524456 2
1.0774186 -0.3296166 -2.6508431 2
1.0906047 -0.32992288 -2.649223 2
1.1045302 -0.3305664 -2.6493988 2
1.1178061 -0.33086985 -2.6477387 2
1.1304023 -0.33083415 -2.644256 2
1.143748 -0.3311354 -2.6425648 2
1.1571336 -0.3314354 -2.6408558 2
1.170559 -0.33173415 -2.6391292 2
1.1840243 -0.33203164 -2.6373847 2
1.1975296 -0.3323279 -2.6356225 2
1.211854 -0.33295885 -2.6356206 2
1.225449 -0.33325225 -2.6338186 2
1.2390838 -0.3335444 -2.6319985 2
1.2519493 -0.3335003 -2.628396 2
1.2648348 -0.33345553 -2.6247845 2
1.2777401 -0.3334101 -2.621164 2
1.2898263 -0.33303 -2.6157835 2
1.3027616 -0.33298364 -2.6121497 2
1.3157167 -0.33293667 -2.6085072 2
1.328692 -0.33288908 -2.6048558 2
1.340808 -0.332508 -2.5994616 2
1.3538132 -0.33245948 -2.5957968 2
1.3659391 -0.3320781 -2.5903983 2
1.3798832 -0.33236054 -2.5884407 2
1.3920292 -0.33197853 -2.5830333 2
1.4051042 -0.3319278 -2.5793374 2
1.418199 -0.33187646 -2.5756328 2
1.4313138 -0.33182445 -2.5719192 2
1.4454073 -0.3321022 -2.569895 2
1.458572 -0.33204862 -2.5661592 2
1.4737141 -0.33265388 -2.5657935 2
1.4869386 -0.33259845 -2.562031 2
1.4991844 -0.3322133 -2.556579 2
1.5124388 -0.33215693 -2.5528035 2
1.5267317 -0.33242837 -2.5506904 2
1.5390073 -0.33204228 -2.5452254 2
1.551283 -0.3316562 -2.53976 2
1.5656558 -0.33192515 -2.5376117 2
1.5790099 -0.33186567 -2.5337915 2
1.592384 -0.3318055 -2.5299625 2
1.6068565 -0.3320713 -2.5277698 2
1.6202804 -0.3320096 -2.5239184 2
1.6337243 -0.3319473 -2.5200584 2
1.6482966 -0.33220997 -2.517821 2
1.6617903 -0.33214605 -2.513939 2
1.6753039 -0.33208156 -2.5100477 2
1.6899759 -0.33234107 -2.507766 2
1.7035394 -0.33227494 -2.5038526 2
1.7171229 -0.33220822 -2.4999304 2
1.7318946 -0.33246464 -2.4976044 2
1.7443497 -0.33207288 -2.4920592 2
1.7591813 -0.33232743 -2.4897065 2
1.7716564 -0.33193508 -2.4841528 2
1.7853395 -0.33186522 -2.480186 2
1.7990427 -0.3317947 -2.4762106 2
1.8115377 -0.33140174 -2.4706478 2
1.8252708 -0.33133033 -2.4666588 2
1.8390237 -0.33125827 -2.4626613 2
1.8540548 -0.3315065 -2.4602196 2
1.8678576 -0.33143285 -2.4561996 2
1.8816804 -0.3313586 -2.4521708 2
1.896811 -0.33160377 -2.449685 2
1.9119817 -0.3318476 -2.4471812 2
1.9271921 -0.3320902 -2.44466 2
1.9424423 -0.33233157 -2.4421208 2
1.9590604 -0.3328904 -2.441098 2
1.9744004 -0.3331289 -2.438519 2
1.9911281 -0.33368427 -2.437447 2
2.0052004 -0.3336022 -2.4333072 2
2.02066 -0.33383697 -2.430675 2
2.0375373 -0.33438763 -2.4295366 2
2.053087 -0.33461955 -2.4268641 2
2.0686762 -0.33485025 -2.4241743 2
2.0843055 -0.33507967 -2.4214664 2
2.101392 -0.33562377 -2.4202347 2
2.1185386 -0.336166 -2.4189765 2
2.1371825 -0.33702162 -2.419177 2
2.1559062 -0.3378747 -2.4193418 2
2.1747096 -0.3387253 -2.4194713 2
2.1950603 -0.3398877 -2.4210367 2
2.2169878 -0.34136105 -2.4240255 2
2.2405226 -0.34314433 -2.4284241 2
2.2671914 -0.34555003 -2.4356775 1
2.2925327 -0.347637 -2.441397 1
0.6134041 -0.3691168 -2.9253352 1
0.62236404 -0.3647553 -2.8980086 1
0.6326026 -0.36220798 -2.8807206 2
0.64210236 -0.35894212 -2.8595185 2
0.6520817 -0.35640293 -2.8423462 2
0.6616118 -0.35350704 -2.823252 2
0.6720209 -0.3516961 -2.8101315 2
0.68200064 -0.34952784 -2.7950804 2
0.6922402 -0.34772223 -2.7820354 2
0.7027693 -0.34627843 -2.770983 2
0.7132387 -0.34483647 -2.759957 2
0.72442687 -0.34411374 -2.7528543 2
0.7355952 -0.3433916 -2.7457607 2
0.7467435 -0.34267005 -2.7386758 2
0.75787187 -0.34194922 -2.7315998 2
0.7694096 -0.34158635 -2.726463 2
0.7809473 -0.34122345 -2.7213266 2
0.792485 -0.34086058 -2.7161899 2
0.8035636 -0.3401412 -2.7091362 2
0.81509125 -0.33977866 -2.704004 2
0.826619 -0.3394161 -2.6988719 2
0.8386358 -0.33940905 -2.6956434 2
0.8501735 -0.33904618 -2.690507 2
0.8622203 -0.33903813 -2.6872652 2
0.8742869 -0.33902952 -2.6840146 2
0.8858446 -0.338666 -2.6788692 2
0.8984802 -0.33901033 -2.677487 2
0.9106066 -0.33899987 -2.6742098 2
0.9227531 -0.3389887 -2.6709237 2
0.93548834 -0.33932993 -2.6694973 2
0.94768465 -0.33931726 -2.666189 2
0.959901 -0.33930388 -2.6628718 2
0.9727359 -0.339642 -2.6614008 2
0.98500204 -0.33962703 -2.6580615 2
0.9972881 -0.33961153 -2.6547134 2
1.0102228 -0.33994648 -2.653198 2
1.023836 -0.34063095 -2.6535022 2
1.0362118 -0.34061265 -2.650114 2
1.0492662 -0.34094378 -2.6485453 2
1.0623604 -0.34127373 -2.646959 2
1.0754945 -0.34160239 -2.6453547 2
1.0886686 -0.34192982 -2.6437328 2
1.102581 -0.3426049 -2.643904 2
1.1151364 -0.3425809 -2.6404357 2
1.12843 -0.34290457 -2.6387606 2
1.1417637 -0.34322697 -2.6370676 2
1.1551371 -0.34354812 -2.635357 2
1.1678021 -0.34352064 -2.63184 2
1.1812453 -0.34383962 -2.6300983 2
1.1947286 -0.34415734 -2.6283388 2
1.2090299 -0.34482014 -2.6283364 2
1.2226028 -0.34513503 -2.626537 2
1.2362156 -0.34544867 -2.6247199 2
1.2498683 -0.34576103 -2.6228848 2
1.2619245 -0.34538186 -2.6175172 2
1.2739807 -0.34500265 -2.6121497 2
1.2868751 -0.34496802 -2.6085308 2
1.2997894 -0.3449327 -2.604903 2
1.3127236 -0.3448968 -2.6012661 2
1.3248098 -0.34451666 -2.5958853 2
1.3368961 -0.34413654 -2.5905044 2
1.3498701 -0.34409934 -2.58685 2
1.3619663 -0.34371892 -2.5814648 2
1.3749703 -0.34368077 -2.577797 2
1.3870765 -0.3433 -2.5724072 2
1.4001104 -0.34326097 -2.568726 2
1.4131643 -0.3432213 -2.565036 2
1.427186 -0.34352207 -2.5630367 2
1.4412475 -0.34382156 -2.5610197 2
1.4543812 -0.34377939 -2.5572941 2
1.4685125 -0.3440767 -2.555246 2
1.4826838 -0.34437275 -2.5531802 2
1.4948996 -0.34398854 -2.5477417 2
1.508123 -0.3439435 -2.543976 2
1.5213665 -0.34389788 -2.5402017 2
1.5346297 -0.34385163 -2.5364184 2
1.547913 -0.3438047 -2.5326262 2
1.5612162 -0.3437572 -2.5288253 2
1.5745394 -0.34370902 -2.5250154 2
1.5878825 -0.34366027 -2.5211966 2
1.6023229 -0.34394786 -2.5190108 2
1.615716 -0.3438975 -2.5151699 2
1.6302263 -0.3441829 -2.512953 2
1.6447765 -0.34446704 -2.5107183 2
1.6593665 -0.34474993 -2.508466 2
1.6728691 -0.3446961 -2.5045762 2
1.6863917 -0.34464172 -2.5006776 2
1.7010815 -0.34492147 -2.4983807 2
1.714654 -0.34486544 -2.4944599 2
1.7282463 -0.34480882 -2.49053 2
1.7418587 -0.3447516 -2.4865913 2
1.755491 -0.34469372 -2.482644 2
1.7679461 -0.34430197 -2.477099 2
1.7816085 -0.34424317 -2.4731379 2
1.7952906 -0.3441837 -2.4691682 2
1.8089926 -0.34412366 -2.4651895 2
1.8227147 -0.34406295 -2.4612021 2
1.8364567 -0.34400165 -2.4572058 2
1.8502185 -0.34393966 -2.4532003 2
1.8652674 -0.34420815 -2.450744 2
1.8790791 -0.34414458 -2.4467163 2
1.8941978 -0.34441087 -2.4442286 2
1.9080594 -0.3443458 -2.4401793 2
1.9232478 -0.34460986 -2.4376605 2
1.9397928 -0.34520215 -2.4366593 2
1.9563977 -0.34579253 -2.4356318 2
1.9717257 -0.3460522 -2.4330506 2
1.9870937 -0.34631062 -2.430452 2
2.0025015 -0.3465678 -2.4278357 2
2.017949 -0.34682372 -2.4252014 2
2.0348134 -0.34740597 -2.4240584 2
2.0503507 -0.34765905 -2.4213843 2
2.0673244 -0.34823784 -2.4201922 2
2.0829518 -0.34848812 -2.417478 2
2.0986187 -0.34873715 -2.4147463 2
2.1171787 -0.3496369 -2.41497 2
2.1358182 -0.3505342 -2.4151578 2
2.1545377 -0.351429 -2.4153104 2
2.1747932 -0.3526463 -2.4169006 2
2.1951485 -0.35386056 -2.4184463 2
2.2185562 -0.35572052 -2.4228764 2
2.245076 -0.3582244 -2.430164 1
2.2732718 -0.3610464 -2.4388273 1
2.303173 -0.36418566 -2.4488528 1
0.6115656 -0.38106135 -2.917573 1
0.62109447 -0.37733024 -2.8942683 2
0.63074213 -0.37397668 -2.873029 2
0.64053893 -0.37099963 -2.853841 2
0.65019614 -0.36802703 -2.8347154 2
0.6600421 -0.36542976 -2.8176236 2
0.6701069 -0.36320686 -2.8025527 2
0.68042046 -0.3613574 -2.7894888 2
0.6906542 -0.35951048 -2.7764606 2
0.70080817 -0.35766605 -2.7634678 2
0.71163905 -0.35656282 -2.7544098 2
0.72281843 -0.35582998 -2.7473147 2
0.7343761 -0.35546646 -2.7421694 2
0.7455254 -0.3547345 -2.7350874 2
0.7570731 -0.35437134 -2.7299464 2
0.7681925 -0.35364035 -2.722878 2
0.7797303 -0.35327747 -2.7177413 2
0.791268 -0.3529146 -2.7126048 2
0.80234754 -0.35218486 -2.705554 2
0.8138753 -0.3518223 -2.7004218 2
0.825403 -0.3514597 -2.6952896 2
0.8374188 -0.35146308 -2.6920583 2
0.8494545 -0.3514658 -2.688818 2
0.8610022 -0.3511026 -2.683677 2
0.87306786 -0.35110438 -2.6804233 2
0.8851533 -0.35110554 -2.6771607 2
0.8972589 -0.35110608 -2.6738894 2
0.90993214 -0.35147002 -2.6724832 2
0.92208755 -0.351469 -2.6691897 2
0.9342629 -0.3514673 -2.665887 2
0.9464581 -0.35146505 -2.662576 2
0.95926106 -0.3518249 -2.661112 2
0.97150624 -0.35182104 -2.6577785 2
0.9837713 -0.3518165 -2.654436 2
0.9960563 -0.35181144 -2.6510847 2
1.0089889 -0.35216722 -2.6495633 2
1.0219613 -0.35252178 -2.6480238 2
1.0349737 -0.35287505 -2.6464667 2
1.048026 -0.35322705 -2.644892 2
1.0604507 -0.35321754 -2.6414785 2
1.0735728 -0.35356736 -2.6398726 2
1.0867347 -0.35391593 -2.638249 2
1.0999365 -0.35426328 -2.6366074 2
1.1131783 -0.35460934 -2.6349483 2
1.1257424 -0.35459542 -2.6314726 2
1.1390541 -0.3549393 -2.6297824 2
1.1516681 -0.3549238 -2.6262846 2
1.1650494 -0.35526547 -2.6245632 2
1.1777134 -0.35524845 -2.6210432 2
1.1919317 -0.35594505 -2.6210673 2
1.2054328 -0.356283 -2.6192927 2
1.2189736 -0.35661966 -2.6175003 2
1.2333516 -0.35731122 -2.6174533 2
1.2461752 -0.35728917 -2.6138623 2
1.2590185 -0.3572665 -2.6102624 2
1.2710549 -0.35688794 -2.6049037 2
1.2839283 -0.35686433 -2.6012905 2
1.2968215 -0.35684007 -2.5976684 2
1.3088778 -0.35646087 -2.592301 2
1.321801 -0.35643572 -2.5886655 2
1.3338672 -0.3560562 -2.5832937 2
1.3459334 -0.3556767 -2.5779216 2
1.3579997 -0.3552972 -2.5725498 2
1.3700659 -0.3549177 -2.5671778 2
1.3830489 -0.3548906 -2.5635157 2
1.3960519 -0.35486296 -2.5598447 2
1.4090749 -0.3548346 -2.556165 2
1.4221177 -0.35480565 -2.5524764 2
1.4370941 -0.35547844 -2.552163 2
1.4511634 -0.35579845 -2.5501351 2
1.4642961 -0.35576668 -2.5464065 2
1.4774487 -0.3557343 -2.542669 2
1.4906212 -0.35570127 -2.5389225 2
1.5038137 -0.35566762 -2.5351672 2
1.5180427 -0.35598263 -2.5330687 2
1.5312849 -0.3559474 -2.5292912 2
1.5445473 -0.35591155 -2.5255048 2
1.5578295 -0.35587507 -2.5217094 2
1.5711316 -0.35583794 -2.5179055 2
1.5844537 -0.35580024 -2.5140924 2
1.5977958 -0.35576183 -2.5102704 2
1.6122441 -0.35606995 -2.508074 2
1.6267323 -0.35637683 -2.5058599 2
1.6412605 -0.35668245 -2.503628 2
1.6558285 -0.3569868 -2.5013783 2
1.6704365 -0.35728988 -2.499111 2
1.683948 -0.35724616 -2.4952135 2
1.6974796 -0.35720187 -2.4913073 2
1.711031 -0.3571569 -2.4873922 2
1.7246023 -0.35711136 -2.4834683 2
1.7381938 -0.35706514 -2.4795353 2
1.7518051 -0.3570183 -2.4755936 2
1.7642403 -0.3566272 -2.4700575 2
1.7778815 -0.35657945 -2.4661024 2
1.7915426 -0.35653102 -2.4621384 2
1.8064497 -0.35682473 -2.4597378 2
1.8189248 -0.35643235 -2.4541838 2
1.8338916 -0.35672417 -2.4517565 2
1.8476427 -0.35667297 -2.4477525 2
1.8614135 -0.3566211 -2.44374 2
1.8764801 -0.35690978 -2.4412682 2
1.8915865 -0.3571972 -2.4387789 2
1.9067329 -0.35748336 -2.4362717 2
1.9219193 -0.35776824 -2.4337468 2
1.9371455 -0.3580519 -2.431204 2
1.9524114 -0.3583343 -2.4286437 2
1.9690531 -0.3589547 -2.427589 2
1.9844089 -0.35923427 -2.4249885 2
2.0011604 -0.3598512 -2.4238849 2
2.0166059 -0.360128 -2.4212446 2
2.0320914 -0.36040348 -2.4185863 2
2.0490022 -0.36101538 -2.4174118 2
2.0645773 -0.36128807 -2.4147136 2
2.0815978 -0.36189654 -2.4134903 2
2.0986784 -0.36250314 -2.41224 2
2.1158185 -0.36310786 -2.4109633 2
2.1358893 -0.36438295 -2.4126177 2
2.1546144 -0.3653191 -2.4127536 2
2.1748748 -0.3665882 -2.4143238 2
2.1967 -0.3681894 -2.4173152 2
2.2215955 -0.37045652 -2.4231758 2
2.2525916 -0.37405688 -2.434793 1
2.2778463 -0.3763127 -2.4404936 1
0.60297716 -0.40100974 -2.9551194 1
0.6102865 -0.39373007 -2.913805 1
0.61982477 -0.3899052 -2.8905282 2
0.6291834 -0.386086 -2.8673315 2
0.6386701 -0.38265437 -2.8461924 2
0.64863217 -0.37999114 -2.8290703 2
0.6588019 -0.37771302 -2.8139703 2
0.668872 -0.375438 -2.7989147 2
0.67884237 -0.37316617 -2.7839036 2
0.68907034 -0.37127787 -2.7708921 2
0.6992186 -0.36939207 -2.7579162 2
0.7104189 -0.36864814 -2.7508154 2
0.7215993 -0.36790487 -2.7437234 2
0.73275965 -0.36716217 -2.7366402 2
0.7443073 -0.366799 -2.7314992 2
0.75585496 -0.3664358 -2.7263582 2
0.7669755 -0.36569443 -2.7192926 2
0.7785132 -0.36533153 -2.7141562 2
0.79005086 -0.36496866 -2.7090194 2
0.8011316 -0.36422846 -2.7019718 2
0.81265926 -0.3638659 -2.6968398 2
0.824664 -0.36388 -2.6936097 2
0.83620167 -0.36351714 -2.688473 2
0.84823644 -0.36353025 -2.6852295 2
0.8597841 -0.36316705 -2.6800885 2
0.8718487 -0.3631793 -2.6768317 2
0.8839332 -0.36319083 -2.673566 2
0.8960376 -0.3632018 -2.6702917 2
0.9087088 -0.36358657 -2.6688793 2
0.92086315 -0.36359596 -2.6655827 2
0.9330374 -0.36360472 -2.6622772 2
0.9458084 -0.36398637 -2.6608205 2
0.9580325 -0.36399356 -2.6574926 2
0.9702766 -0.36400008 -2.654156 2
0.9825406 -0.364006 -2.6508105 2
0.9948245 -0.36401135 -2.6474562 2
1.007755 -0.36438796 -2.6459284 2
1.0200889 -0.36439168 -2.642552 2
1.0337356 -0.36513746 -2.6428196 2
1.0461293 -0.36513928 -2.6394165 2
1.058543 -0.36514053 -2.6360042 2
1.0716529 -0.36551148 -2.6343966 2
1.0841163 -0.36551115 -2.6309624 2
1.0972961 -0.36587995 -2.6293235 2
1.1105158 -0.36624748 -2.627667 2
1.123059 -0.3662446 -2.6241972 2
1.1363486 -0.36660996 -2.6225097 2
1.1489416 -0.36660552 -2.6190176 2
1.1615547 -0.36660048 -2.6155167 2
1.1749439 -0.3669627 -2.6137848 2
1.188373 -0.3673236 -2.612035 2
1.201842 -0.3676833 -2.6102674 2
1.216137 -0.36840865 -2.6102467 2
1.2296958 -0.36876553 -2.6084392 2
1.2424883 -0.3687548 -2.6048584 2
1.2553008 -0.36874348 -2.6012688 2
1.2681332 -0.36873156 -2.59767 2
1.2809855 -0.36871898 -2.5940628 2
1.2938578 -0.36870578 -2.5904465 2
1.3058941 -0.36832723 -2.5850878 2
1.3179305 -0.36794868 -2.579729 2
1.3299668 -0.3675701 -2.5743706 2
1.3411171 -0.36682773 -2.567292 2
1.3531436 -0.36644948 -2.5619378 2
1.3660756 -0.36643443 -2.5582948 2
1.3790277 -0.3664187 -2.554643 2
1.3919997 -0.3664024 -2.5509822 2
1.4049917 -0.3663854 -2.5473125 2
1.4180037 -0.36636782 -2.5436342 2
1.4319912 -0.36671117 -2.5416358 2
1.4460187 -0.3670533 -2.5396197 2
1.460086 -0.36739418 -2.5375857 2
1.4741931 -0.3677338 -2.5355341 2
1.4863491 -0.36735147 -2.5301223 2
1.5005162 -0.36768922 -2.528044 2
1.5147231 -0.3680257 -2.525948 2
1.5269189 -0.36764213 -2.5205183 2
1.5401503 -0.3676176 -2.5167422 2
1.5534015 -0.36759248 -2.512957 2
1.567728 -0.3679252 -2.5108078 2
1.5820946 -0.36825663 -2.5086408 2
1.5943502 -0.36787117 -2.5031846 2
1.6087766 -0.36820075 -2.5009909 2
1.6232427 -0.36852908 -2.4987793 2
1.6377488 -0.36885616 -2.49655 2
1.6522948 -0.369182 -2.4943032 2
1.6657555 -0.36915025 -2.4904249 2
1.6803712 -0.3694739 -2.4881468 2
1.6938818 -0.36944064 -2.4842463 2
1.7074122 -0.36940673 -2.4803371 2
1.7209626 -0.36937222 -2.4764187 2
1.7345331 -0.36933705 -2.4724917 2
1.7481233 -0.3693013 -2.4685557 2
1.7605386 -0.3689108 -2.4630284 2
1.7753637 -0.36922777 -2.4606571 2
1.7890139 -0.36919013 -2.4566946 2
1.802684 -0.36915183 -2.452723 2
1.816374 -0.3691129 -2.4487426 2
1.830084 -0.36907336 -2.4447532 2
1.8450687 -0.3693854 -2.442311 2
1.8588285 -0.3693443 -2.4382997 2
1.8738831 -0.36965412 -2.4358263 2
1.8876928 -0.3696114 -2.4317925 2
1.902817 -0.36991903 -2.429288 2
1.919286 -0.37057602 -2.4282994 2
1.9345001 -0.3708808 -2.425755 2
1.949754 -0.37118438 -2.423193 2
1.9663825 -0.3718363 -2.4221332 2
1.9817263 -0.37213704 -2.4195309 2
1.9984645 -0.3727856 -2.4184227 2
2.0138981 -0.3730835 -2.4157805 2
2.030746 -0.37372854 -2.4146233 2
2.0462692 -0.37402362 -2.411941 2
2.0632267 -0.37466526 -2.410735 2
2.080244 -0.37530497 -2.409502 2
2.0973213 -0.37594283 -2.4082427 2
2.1144583 -0.3765788 -2.4069567 2
2.1330895 -0.37755945 -2.4071198 2
2.153245 -0.3788838 -2.408719 2
2.1735 -0.380205 -2.4102736 2
2.1982474 -0.38255987 -2.4161718 2
2.2231545 -0.38490975 -2.4219987 2
2.255642 -0.38897946 -2.4350233 1
2.288389 -0.39304104 -2.4479325 1
0.60114616 -0.41307873 -2.9473112 1
0.6087309 -0.40600547 -2.908049 1
0.6179821 -0.40169412 -2.8828213 2
0.6276268 -0.39817446 -2.8616402 2
0.6371119 -0.39465985 -2.8405302 2
0.6470703 -0.39193437 -2.8234313 2
0.6572354 -0.3896045 -2.8083513 2
0.6676371 -0.38766918 -2.7952769 2
0.677959 -0.38573635 -2.7822378 2
0.68784493 -0.38341525 -2.767282 2
0.69799733 -0.3814878 -2.7543187 2
0.7091987 -0.38073346 -2.7472208 2
0.7203801 -0.37997976 -2.7401319 2
0.7315416 -0.37922665 -2.7330518 2
0.7430892 -0.37886345 -2.7279108 2
0.7546369 -0.37850025 -2.7227697 2
0.7657585 -0.37774846 -2.7157075 2
0.7772962 -0.37738556 -2.7105708 2
0.78883386 -0.37702268 -2.7054343 2
0.80037165 -0.3766598 -2.7002976 2
0.8119093 -0.37629694 -2.695161 2
0.823923 -0.3763211 -2.6919234 2
0.8354707 -0.3759579 -2.6867824 2
0.84701836 -0.3755947 -2.6816413 2
0.85907185 -0.37561765 -2.6783857 2
0.87114537 -0.37563998 -2.6751215 2
0.8832388 -0.37566164 -2.6718485 2
0.8953521 -0.3756827 -2.6685665 2
0.9074855 -0.37570313 -2.6652756 2
0.91963875 -0.37572294 -2.6619759 2
0.9323777 -0.37612635 -2.6605263 2
0.9445808 -0.37614456 -2.6572042 2
0.9568039 -0.3761622 -2.6538734 2
0.96904695 -0.37617916 -2.6505337 2
0.9813099 -0.3761955 -2.647185 2
0.99359274 -0.37621123 -2.6438274 2
1.0065211 -0.3766087 -2.6422935 2
1.0194894 -0.37700492 -2.6407418 2
1.0318521 -0.37701812 -2.637349 2
1.0442348 -0.37703073 -2.633947 2
1.0566373 -0.37704268 -2.630536 2
1.0690598 -0.37705398 -2.6271164 2
1.0821877 -0.37744513 -2.6254938 2
1.0953554 -0.3778351 -2.6238532 2
1.1078577 -0.37784392 -2.620398 2
1.1203799 -0.3778521 -2.616934 2
1.1336473 -0.37823892 -2.6152492 2
1.1462195 -0.37824553 -2.611763 2
1.1595566 -0.37863016 -2.6100469 2
1.1721786 -0.3786352 -2.6065385 2
1.1855857 -0.3790176 -2.6047914 2
1.1990327 -0.37939873 -2.6030266 2
1.2125194 -0.37977862 -2.601244 2
1.2260462 -0.3801573 -2.5994437 2
1.2396128 -0.38053468 -2.5976257 2
1.2524042 -0.38053444 -2.5940418 2
1.2643907 -0.38015744 -2.5887053 2
1.2780471 -0.38053197 -2.5868473 2
1.2900534 -0.38015434 -2.581502 2
1.3029147 -0.3801519 -2.577887 2
1.3140662 -0.37939912 -2.5708115 2
1.3260726 -0.3790215 -2.5654662 2
1.338079 -0.37864387 -2.5601208 2
1.3500854 -0.37826625 -2.5547755 2
1.3620918 -0.37788862 -2.5494304 2
1.3750129 -0.3778843 -2.5457888 2
1.387954 -0.37787932 -2.542138 2
1.4009149 -0.3778737 -2.5384789 2
1.4148406 -0.37823978 -2.536501 2
1.4288061 -0.37860465 -2.5345051 2
1.4418468 -0.37859654 -2.5308104 2
1.4558821 -0.37895915 -2.5287836 2
1.4699572 -0.37932056 -2.5267391 2
1.4830779 -0.37930995 -2.5230086 2
1.4972228 -0.37966916 -2.520933 2
1.5103933 -0.37965694 -2.5171804 2
1.5235837 -0.37964413 -2.513419 2
1.536794 -0.37963066 -2.5096486 2
1.5510685 -0.37998578 -2.5075152 2
1.5643287 -0.37997076 -2.5037227 2
1.5786731 -0.3803237 -2.5015583 2
1.5919832 -0.3803071 -2.4977436 2
1.6063974 -0.38065785 -2.495548 2
1.6208515 -0.38100734 -2.4933348 2
1.6342413 -0.38098824 -2.4894845 2
1.6487652 -0.3813355 -2.4872403 2
1.6622049 -0.38131484 -2.483368 2
1.6767987 -0.3816599 -2.4810925 2
1.6891441 -0.3812716 -2.4755962 2
1.7037977 -0.38161483 -2.4732943 2
1.7173271 -0.38159138 -2.4693818 2
1.7308764 -0.38156724 -2.4654603 2
1.7444457 -0.38154253 -2.4615302 2
1.758035 -0.38151714 -2.457591 2
1.7716442 -0.38149115 -2.453643 2
1.7852733 -0.38146454 -2.4496863 2
1.7989224 -0.38143727 -2.4457207 2
1.8138252 -0.3817726 -2.4433076 2
1.8275242 -0.38174385 -2.4393196 2
1.8412431 -0.38171437 -2.4353228 2
1.8562456 -0.3820466 -2.4328656 2
1.8700144 -0.38201562 -2.4288464 2
1.8850868 -0.38234565 -2.426358 2
1.900199 -0.3826744 -2.4238517 2
1.9166548 -0.38336295 -2.4228582 2
1.9331706 -0.38404962 -2.4218383 2
1.9484223 -0.38437402 -2.4192698 2
1.9637142 -0.38469714 -2.4166837 2
1.9803894 -0.3853788 -2.4155927 2
1.9957709 -0.3856991 -2.4129665 2
2.0125558 -0.3863773 -2.4118266 2
2.028027 -0.3866948 -2.4091604 2
2.0449216 -0.38736954 -2.4079716 2
2.061876 -0.38804242 -2.4067562 2
2.0788903 -0.3887134 -2.405514 2
2.0959644 -0.3893825 -2.4042454 2
2.1145217 -0.39040703 -2.404427 2
2.1331587 -0.39142904 -2.4045734 2
2.1518753 -0.3924485 -2.4046845 2
2.1750317 -0.3945345 -2.4091516 2
2.1997907 -0.39697206 -2.4150157 2
2.232075 -0.40118316 -2.4280844 1
2.2586863 -0.40396458 -2.4352353 1
0.5993191 -0.42510596 -2.9395154 1
0.606902 -0.41785625 -2.9003146 1
0.6164291 -0.4138448 -2.8771071 2
0.6257769 -0.40983897 -2.8539793 2
0.6355558 -0.40664443 -2.8348744 2
0.64582586 -0.40425932 -2.8197656 2
0.6559962 -0.4018773 -2.804701 2
0.6664021 -0.39990032 -2.7916389 2
0.676383 -0.3975243 -2.7766588 2
0.6862642 -0.3951514 -2.7617228 2
0.69677603 -0.39358348 -2.750721 2
0.7079785 -0.39281875 -2.7436264 2
0.719161 -0.39205462 -2.7365406 2
0.7307186 -0.39169112 -2.731395 2
0.7418711 -0.3909279 -2.7243226 2
0.7534188 -0.3905647 -2.7191815 2
0.7645414 -0.3898025 -2.7121222 2
0.7765142 -0.38983834 -2.7088993 2
0.78806186 -0.38947514 -2.7037582 2
0.7991545 -0.38871387 -2.6967125 2
0.8111572 -0.38874876 -2.6934762 2
0.8227049 -0.38838556 -2.688335 2
0.8342526 -0.38802236 -2.683194 2
0.8462951 -0.38805607 -2.67994 2
0.85835755 -0.3880891 -2.676677 2
0.8704399 -0.3881215 -2.6734052 2
0.88254225 -0.38815328 -2.6701245 2
0.8946645 -0.38818443 -2.666835 2
0.9068068 -0.38821498 -2.6635365 2
0.91896904 -0.38824487 -2.6602292 2
0.93115115 -0.38827416 -2.656913 2
0.9433533 -0.3883028 -2.653588 2
0.9555752 -0.38833085 -2.650254 2
0.9678172 -0.38835824 -2.6469111 2
0.9800792 -0.38838497 -2.6435595 2
0.99236095 -0.38841113 -2.640199 2
1.0052873 -0.38882944 -2.6386588 2
1.017619 -0.388854 -2.6352758 2
1.0299706 -0.38887796 -2.6318843 2
1.0423422 -0.38890126 -2.6284838 2
1.0553982 -0.3893155 -2.626886 2
1.0678196 -0.38933724 -2.6234632 2
1.080261 -0.38935834 -2.6200316 2
1.0934167 -0.38976943 -2.6183891 2
1.1059079 -0.389789 -2.6149354 2
1.1191335 -0.39019787 -2.6132622 2
1.1316745 -0.39021587 -2.609786 2
1.1442356 -0.39023322 -2.606301 2
1.1568166 -0.39024994 -2.6028073 2
1.1694176 -0.39026606 -2.5993047 2
1.1828026 -0.3906699 -2.5975604 2
1.1962274 -0.39107254 -2.5957983 2
1.2096922 -0.3914739 -2.5940182 2
1.223197 -0.391874 -2.5922208 2
1.2359375 -0.39188573 -2.588656 2
1.248698 -0.3918968 -2.5850823 2
1.2623024 -0.39229378 -2.58324 2
1.2742789 -0.3919171 -2.5779083 2
1.2870992 -0.39192632 -2.574308 2
1.2990856 -0.39154932 -2.5689714 2
1.3110721 -0.39117232 -2.563635 2
1.3221848 -0.39041036 -2.5565803 2
1.3341612 -0.3900337 -2.5512483 2
1.3461376 -0.38965702 -2.5459163 2
1.3590178 -0.38966435 -2.5422895 2
1.3728317 -0.3900547 -2.540354 2
1.3857617 -0.39006048 -2.536705 2
1.3987117 -0.3900656 -2.533047 2
1.4116817 -0.3900701 -2.52938 2
1.4256251 -0.3904564 -2.527387 2
1.4396083 -0.39084148 -2.5253763 2
1.4536316 -0.39122525 -2.5233476 2
1.4667113 -0.3912263 -2.5196319 2
1.4808042 -0.3916079 -2.5175724 2
1.4939337 -0.39160737 -2.5138345 2
1.5070832 -0.39160624 -2.5100875 2
1.5212759 -0.3919847 -2.5079837 2
1.5344752 -0.391982 -2.5042145 2
1.5487378 -0.39235827 -2.5020795 2
1.5619869 -0.39235398 -2.4982882 2
1.575256 -0.39234906 -2.4944882 2
1.5896182 -0.3927222 -2.4923086 2
1.6029372 -0.39271572 -2.4884863 2
1.6173693 -0.39308667 -2.486276 2
1.6318412 -0.39345637 -2.4840474 2
1.64524 -0.39344734 -2.4801898 2
1.6597817 -0.39381483 -2.4779305 2
1.6732303 -0.39380428 -2.4740505 2
1.6866988 -0.39379308 -2.4701614 2
1.7001873 -0.39378127 -2.4662638 2
1.7148587 -0.39414468 -2.4639466 2
1.728397 -0.39413133 -2.4600267 2
1.7419553 -0.3941173 -2.4560976 2
1.7555336 -0.3941027 -2.45216 2
1.7691317 -0.3940874 -2.4482133 2
1.7827498 -0.39407155 -2.4442577 2
1.7963878 -0.39405504 -2.4402936 2
1.8112787 -0.39441153 -2.4378786 2
1.8262093 -0.3947668 -2.4354463 2
1.8399272 -0.39474773 -2.4314463 2
1.8536649 -0.39472812 -2.4274375 2
1.8674227 -0.39470783 -2.42342 2
1.8824829 -0.39505902 -2.4209297 2
1.8988757 -0.39578068 -2.4199536 2
1.9140259 -0.39612904 -2.4174232 2
1.9292158 -0.39647615 -2.4148755 2
1.9457681 -0.39719284 -2.4138284 2
1.9623804 -0.3979076 -2.4127545 2
1.9790524 -0.39862052 -2.411654 2
1.9944319 -0.39896166 -2.4090219 2
2.0112138 -0.39967114 -2.4078724 2
2.0280552 -0.40037873 -2.4066966 2
2.043574 -0.40071547 -2.4040022 2
2.0605254 -0.4014196 -2.4027772 2
2.078939 -0.40249017 -2.403009 2
2.0946074 -0.4028222 -2.400248 2
2.1131606 -0.40388837 -2.4004173 2
2.130361 -0.40458468 -2.3990817 2
2.151948 -0.40638027 -2.402115 2
2.1751068 -0.40853885 -2.4065561 2
2.2057161 -0.41252527 -2.4182167 1
2.2350924 -0.416138 -2.428319 1
0.597232 -0.4366771 -2.9297457 1
0.60535157 -0.43007958 -2.8945744 1
0.6145939 -0.42556077 -2.869422 2
0.6242255 -0.42187536 -2.8483038 2
0.634002 -0.41860822 -2.8292248 2
0.64426714 -0.4161713 -2.814136 2
0.65475714 -0.41415015 -2.8010507 2
0.6651672 -0.4121315 -2.788001 2
0.6751534 -0.40970334 -2.7730362 2
0.6850398 -0.4072784 -2.758116 2
0.69555485 -0.40567923 -2.7471232 2
0.70675826 -0.40490404 -2.7400317 2
0.71832585 -0.40454024 -2.7348819 2
0.72949946 -0.403766 -2.7278035 2
0.74105716 -0.40340248 -2.722658 2
0.7522007 -0.4026292 -2.715593 2
0.7637484 -0.402266 -2.710452 2
0.7752961 -0.4019028 -2.705311 2
0.7868438 -0.4015396 -2.7001698 2
0.79839146 -0.40117642 -2.6950288 2
0.80993915 -0.40081322 -2.6898878 2
0.82148683 -0.40045002 -2.6847467 2
0.83351827 -0.40049443 -2.681494 2
0.84556973 -0.4005382 -2.6782324 2
0.8571373 -0.40017438 -2.6730826 2
0.8692187 -0.4002172 -2.6698077 2
0.88132 -0.40025944 -2.666524 2
0.8934412 -0.400301 -2.6632311 2
0.9055824 -0.40034196 -2.6599298 2
0.91774356 -0.40038228 -2.6566193 2
0.9304882 -0.40082705 -2.6551528 2
0.9426993 -0.40086582 -2.6518202 2
0.9549302 -0.40090394 -2.6484787 2
0.9671811 -0.40094143 -2.6451283 2
0.97884846 -0.40057448 -2.639934 2
0.99174273 -0.40101454 -2.638401 2
1.0040534 -0.40105018 -2.6350238 2
1.0163841 -0.40108517 -2.631638 2
1.0280913 -0.40071696 -2.626426 2
1.0404519 -0.400751 -2.6230268 2
1.0534958 -0.40118638 -2.621427 2
1.0659062 -0.40121886 -2.6180058 2
1.0790198 -0.401652 -2.616375 2
1.0914801 -0.4016829 -2.6129315 2
1.1039604 -0.40171322 -2.609479 2
1.1171738 -0.40214327 -2.6078038 2
1.1297039 -0.40217197 -2.604329 2
1.1422539 -0.40220007 -2.6008456 2
1.1548239 -0.40222752 -2.5973532 2
1.1674138 -0.40225434 -2.5938518 2
1.1807867 -0.40267938 -2.5921056 2
1.1934265 -0.40270466 -2.5885823 2
1.2068692 -0.40312746 -2.5868049 2
1.2203519 -0.40354905 -2.58501 2
1.2330714 -0.40357178 -2.581451 2
1.2466239 -0.40399116 -2.579625 2
1.2593933 -0.40401235 -2.5760436 2
1.2721827 -0.40403295 -2.5724535 2
1.284992 -0.40405285 -2.5688546 2
1.2961156 -0.4032802 -2.5617986 2
1.3080822 -0.40290383 -2.556471 2
1.319176 -0.4021321 -2.5494282 2
1.3311324 -0.40175605 -2.5441053 2
1.3439816 -0.40177473 -2.5404885 2
1.3568509 -0.4017928 -2.5368629 2
1.3697399 -0.40181023 -2.5332284 2
1.382649 -0.401827 -2.529585 2
1.3955779 -0.40184316 -2.5259326 2
1.4094695 -0.4022519 -2.5239556 2
1.4234008 -0.40265936 -2.521961 2
1.4373721 -0.40306556 -2.5199485 2
1.4513832 -0.40347052 -2.517918 2
1.4644518 -0.4034823 -2.5142038 2
1.4775404 -0.40349343 -2.5104804 2
1.4916512 -0.40389526 -2.5084057 2
1.5047896 -0.40390483 -2.5046604 2
1.5189703 -0.40430444 -2.5025544 2
1.5321585 -0.40431246 -2.498787 2
1.5453668 -0.40431985 -2.4950101 2
1.5596471 -0.40471634 -2.49286 2
1.5729052 -0.40472215 -2.4890614 2
1.5872554 -0.4051164 -2.4868803 2
1.6005633 -0.4051207 -2.4830592 2
1.6149833 -0.40551275 -2.480847 2
1.6294432 -0.4059036 -2.4786167 2
1.6428308 -0.40590537 -2.4747603 2
1.6562384 -0.40590647 -2.470895 2
1.6696662 -0.40590698 -2.4670208 2
1.6842556 -0.40629372 -2.4647331 2
1.697733 -0.40629262 -2.4608364 2
1.7112305 -0.40629092 -2.456931 2
1.7259197 -0.40667453 -2.454599 2
1.7382851 -0.40628564 -2.4490938 2
1.7530341 -0.40666738 -2.4467351 2
1.7666214 -0.40666285 -2.4427898 2
1.7802285 -0.4066577 -2.4388356 2
1.7950772 -0.4070363 -2.4364324 2
1.8087342 -0.40702957 -2.432456 2
1.8224111 -0.4070222 -2.428471 2
1.8373597 -0.4073977 -2.4260232 2
1.8510864 -0.40738878 -2.422016 2
1.8661046 -0.40776202 -2.419537 2
1.8811628 -0.40813404 -2.4170408 2
1.896261 -0.4085048 -2.4145265 2
1.911399 -0.40887433 -2.4119947 2
1.9278883 -0.40962413 -2.410965 2
1.9444375 -0.41037205 -2.4099083 2
1.9610466 -0.41111812 -2.4088254 2
1.976374 -0.41148168 -2.406209 2
1.9930928 -0.41222423 -2.405077 2
2.0098715 -0.41296497 -2.4039185 2
2.0253384 -0.41332412 -2.4012399 2
2.0422268 -0.41406137 -2.4000325 2
2.0605662 -0.41517583 -2.4002829 2
2.077584 -0.41590902 -2.3990178 2
2.0946617 -0.41664034 -2.397726 2
2.110378 -0.41699162 -2.3949366 2
2.1289966 -0.4180973 -2.3950624 2
2.1505773 -0.41995537 -2.3980775 2
2.1795332 -0.4236956 -2.4083276 2
2.2043254 -0.42629835 -2.4141202 1
2.254285 -0.43529725 -2.4444723 1
0.5948878 -0.44776076 -2.9180117 1
0.6032566 -0.44143283 -2.8848832 1
0.61304617 -0.43765938 -2.863723 2
0.62267625 -0.43389094 -2.8426342 2
