ply
format ascii 1.0
comment v20 pointcloud — conf>=1, radius=1.7m, n=6662
element vertex 1406
property float x
property float y
property float z
property uchar confidence
end_header
1.8958973 -0.7779467 -2.3852553 1
1.9214604 -0.7841058 -2.3940296 1
1.9510322 -0.79221725 -2.407057 1
1.9821429 -0.80097365 -2.421412 1
2.0096643 -0.8077658 -2.4313285 1
2.0374055 -0.8145516 -2.4411478 1
0.60361105 -0.8444452 -2.998865 1
0.6139423 -0.836457 -2.9722283 1
0.62162054 -0.8222505 -2.9287157 1
0.6297405 -0.81012934 -2.891024 1
0.63897294 -0.8014732 -2.8628685 1
0.64856654 -0.7942055 -2.8385642 2
0.65920174 -0.78970534 -2.8218212 2
0.6700375 -0.7858988 -2.8069954 2
0.6811037 -0.7827851 -2.7940729 2
0.69209003 -0.77967364 -2.7811859 2
0.7033467 -0.7772538 -2.770185 2
0.7145436 -0.77483565 -2.7592103 2
0.7260508 -0.77310807 -2.750104 2
0.73827845 -0.7727585 -2.74469 2
0.7501159 -0.77172077 -2.7374432 2
0.76193345 -0.77068365 -2.730205 2
0.7733208 -0.7689594 -2.7211518 2
0.7855085 -0.768611 -2.7157555 2
0.79812634 -0.7689497 -2.7121744 2
0.8112042 -0.7699746 -2.7103953 2
0.824322 -0.7709983 -2.7085986 2
0.8370197 -0.7713347 -2.704982 2
0.8506774 -0.7730423 -2.704952 2
0.86487496 -0.7754339 -2.7066884 2
0.8781724 -0.7764525 -2.704812 2
0.89050984 -0.77609986 -2.6993494 2
0.9028473 -0.7757472 -2.6938868 2
0.9157047 -0.776079 -2.6901996 2
0.92805207 -0.7757261 -2.6847327 2
0.9403995 -0.7753731 -2.6792657 2
0.9521971 -0.7743365 -2.6720364 2
0.96285486 -0.7719338 -2.6613007 2
0.97459257 -0.77089894 -2.6540978 2
0.9857304 -0.76918185 -2.6451552 2
0.99741817 -0.76814836 -2.6379745 2
1.0090859 -0.76711553 -2.6308029 2
1.0213435 -0.7667651 -2.6253755 2
1.0329814 -0.7657331 -2.618217 2
1.045229 -0.765383 -2.6127942 2
1.0574765 -0.7650329 -2.6073713 2
1.0697242 -0.7646828 -2.6019485 2
1.0819718 -0.7643327 -2.5965257 2
1.0942193 -0.7639826 -2.5911028 2
1.106467 -0.76363254 -2.58568 2
1.1187146 -0.7632824 -2.5802572 2
1.1309621 -0.7629323 -2.5748346 2
1.1432098 -0.7625822 -2.5694118 2
1.1547378 -0.76155335 -2.5623019 2
1.1662458 -0.76052505 -2.5552008 2
1.177734 -0.7594973 -2.5481086 2
1.1892021 -0.7584701 -2.5410252 2
1.2014098 -0.75812113 -2.53562 2
1.2136174 -0.7577722 -2.530215 2
1.2266046 -0.75810033 -2.5264704 2
1.2396117 -0.75842786 -2.5227168 2
1.2526388 -0.75875485 -2.5189545 2
1.2664952 -0.75975746 -2.5168307 2
1.2803916 -0.76075894 -2.5146892 2
1.294328 -0.7617593 -2.51253 2
1.3083042 -0.76275843 -2.510353 2
1.3223203 -0.7637565 -2.5081587 2
1.3363764 -0.7647534 -2.5059464 2
1.3504723 -0.76574916 -2.5037165 2
1.363729 -0.7660696 -2.4998524 2
1.3778949 -0.7670634 -2.4975917 2
1.3912015 -0.7673824 -2.4937055 2
1.4054372 -0.76837415 -2.4914138 2
1.4187937 -0.76869166 -2.4875057 2
1.4330993 -0.76968145 -2.485183 2
1.4465057 -0.7699976 -2.4812527 2
1.4608811 -0.77098536 -2.478899 2
1.4752966 -0.771972 -2.4765277 2
1.4897519 -0.7729575 -2.4741387 2
1.5032681 -0.7732705 -2.4701598 2
1.5177933 -0.774254 -2.4677398 2
1.5313594 -0.7745656 -2.463739 2
1.5459545 -0.7755471 -2.461288 2
1.5605896 -0.77652746 -2.4588194 2
1.5752645 -0.77750665 -2.4563332 2
1.5910183 -0.77915436 -2.455375 2
1.6057831 -0.78013104 -2.452849 2
1.6205878 -0.78110653 -2.4503052 2
1.6332946 -0.78074336 -2.444679 2
1.6460013 -0.78038013 -2.439053 2
1.659797 -0.7806851 -2.4349504 2
1.6736126 -0.7809895 -2.430839 2
1.6874483 -0.7812934 -2.4267187 2
1.700185 -0.7809293 -2.4210794 2
1.7129216 -0.78056526 -2.4154398 2
1.7256583 -0.78020114 -2.4098005 2
1.7383951 -0.7798371 -2.4041612 2
1.7522905 -0.78013927 -2.4000144 2
1.766206 -0.7804408 -2.3958588 2
1.7813201 -0.7814075 -2.393178 2
1.797663 -0.7830384 -2.391959 2
1.8128669 -0.7840025 -2.3892386 2
1.8305281 -0.78629506 -2.3894413 2
1.8470507 -0.78792083 -2.3881428 2
1.8648616 -0.79020905 -2.3882792 2
1.883991 -0.793159 -2.3898377 1
1.9057176 -0.79743344 -2.3942575 1
1.9326183 -0.80435735 -2.4044092 1
1.9960281 -0.822826 -2.4344976 1
2.0275228 -0.8317167 -2.4486318 1
0.60516083 -0.8666294 -3.0174193 1
0.6166613 -0.86133265 -2.998313 1
0.6250596 -0.8483175 -2.9585578 1
0.6322607 -0.8332074 -2.9133267 1
0.63933176 -0.8188108 -2.870155 1
0.6483977 -0.810035 -2.8421166 2
0.6590793 -0.8054713 -2.8253748 2
0.66996044 -0.8016116 -2.8105469 2
0.6810709 -0.7984551 -2.7976193 2
0.6921015 -0.7953009 -2.784727 2
0.7034015 -0.7928487 -2.7737179 2
0.7146416 -0.79039824 -2.762735 2
0.72656 -0.7893478 -2.755456 2
0.7384584 -0.788298 -2.7481856 2
0.7503369 -0.78724873 -2.7409241 2
0.7621954 -0.78620005 -2.7336717 2
0.7736249 -0.78445387 -2.724607 2
0.78585255 -0.78410435 -2.719193 2
0.79850924 -0.78445226 -2.7155912 2
0.81162477 -0.78549683 -2.713788 2
0.8252294 -0.7872371 -2.7137704 2
0.8388938 -0.78897566 -2.7137265 2
0.85308695 -0.79140884 -2.7154503 2
0.8673601 -0.79383975 -2.717139 2
0.88073516 -0.7948769 -2.715221 2
0.89365137 -0.7952174 -2.7115042 2
0.9070964 -0.79625255 -2.7095551 2
0.9190248 -0.79520184 -2.7022717 2
0.93146205 -0.7948463 -2.696765 2
0.9438993 -0.79449075 -2.6912582 2
0.9563366 -0.7941353 -2.6857514 2
0.9670975 -0.7916985 -2.6749806 2
0.9777986 -0.7892634 -2.6642365 2
0.9878609 -0.78613687 -2.651773 2
0.99902093 -0.78439844 -2.6428277 2
1.0107397 -0.7833537 -2.635637 2
1.0224385 -0.7823096 -2.6284552 2
1.0353547 -0.7826501 -2.6247382 2
1.0470335 -0.78160655 -2.6175652 2
1.059331 -0.781255 -2.6121204 2
1.0716286 -0.78090346 -2.6066754 2
1.0839261 -0.78055197 -2.6012306 2
1.0962236 -0.7802004 -2.5957856 2
1.1085211 -0.7798489 -2.5903406 2
1.1208186 -0.7794974 -2.5848958 2
1.1331161 -0.77914584 -2.5794508 2
1.1454136 -0.77879435 -2.5740058 2
1.1577111 -0.7784428 -2.568561 2
1.1685518 -0.7767135 -2.559757 2
1.1808293 -0.77636254 -2.554321 2
1.1923584 -0.7753232 -2.5472143 2
1.204626 -0.77497256 -2.5417826 2
1.2168936 -0.7746219 -2.536351 2
1.2291611 -0.7742712 -2.5309193 2
1.2430054 -0.77529496 -2.5287936 2
1.2568896 -0.7763175 -2.5266502 2
1.2700055 -0.7766523 -2.522845 2
1.2839595 -0.7776729 -2.5206707 2
1.2979535 -0.7786923 -2.5184786 2
1.3119875 -0.7797106 -2.516269 2
1.3260614 -0.78072774 -2.5140417 2
1.3393168 -0.78105855 -2.5101748 2
1.3534607 -0.7820737 -2.5079165 2
1.3676443 -0.78308773 -2.5056405 2
1.3809797 -0.7834163 -2.501738 2
1.3952332 -0.78442824 -2.4994311 2
1.4095267 -0.78543913 -2.4971066 2
1.4229419 -0.7857654 -2.4931686 2
1.4363772 -0.786091 -2.489222 2
1.4507705 -0.78709906 -2.4868534 2
1.4642556 -0.7874233 -2.4828846 2
1.4787188 -0.7884294 -2.480485 2
1.4932218 -0.7894342 -2.4780674 2
1.5067868 -0.7897562 -2.4740634 2
1.5213598 -0.7907591 -2.471615 2
1.5349746 -0.79107964 -2.467589 2
1.5496175 -0.7920805 -2.4651096 2
1.5643002 -0.7930802 -2.4626126 2
1.5800508 -0.7947592 -2.461645 2
1.5948234 -0.79575634 -2.4591084 2
1.6096358 -0.7967524 -2.456554 2
1.6234305 -0.79706776 -2.4524481 2
1.637245 -0.79738265 -2.4483335 2
1.6500016 -0.797018 -2.4426854 2
1.6638461 -0.797332 -2.4385576 2
1.6777105 -0.79764533 -2.4344208 2
1.6904873 -0.79728013 -2.4287639 2
1.7032639 -0.79691494 -2.423107 2
1.7160405 -0.7965497 -2.4174497 2
1.7288172 -0.7961845 -2.4117928 2
1.7427415 -0.79649615 -2.4076295 2
1.7555281 -0.79613066 -2.401968 2
1.7694824 -0.7964415 -2.3977916 2
1.7858119 -0.7981039 -2.3965676 2
1.8022014 -0.7997646 -2.395317 2
1.8186506 -0.80142355 -2.3940399 2
1.8363675 -0.803756 -2.3942037 2
1.8541641 -0.8060862 -2.3943322 2
1.8720406 -0.8084141 -2.3944252 2
1.8912344 -0.81141406 -2.395937 1
1.9167658 -0.8177815 -2.4046528 1
1.9437542 -0.824817 -2.4147258 1
2.0137193 -0.84694767 -2.451817 1
0.6064362 -0.88835037 -3.03401 1
0.6188288 -0.88511574 -3.0205293 1
0.6276547 -0.8726218 -2.9826484 1
0.63530654 -0.8580011 -2.939292 1
0.64111835 -0.83983254 -2.886758 1
0.64851815 -0.82665926 -2.84751 1
0.65925634 -0.82203174 -2.8307652 2
0.66987467 -0.8174076 -2.8140733 2
0.6810295 -0.8142084 -2.8011405 2
0.69210434 -0.81101143 -2.7882433 2
0.70344746 -0.8085269 -2.7772257 2
0.71508884 -0.80675393 -2.7680745 2
0.7266902 -0.8049821 -2.758941 2
0.7390076 -0.80463 -2.753487 2
0.7505492 -0.8028599 -2.7443802 2
0.76244867 -0.80179965 -2.737113 2
0.77432823 -0.80074 -2.7298548 2
0.78660583 -0.800389 -2.7244186 2
0.7993113 -0.8007459 -2.7207916 2
0.81291246 -0.8025174 -2.7207646 2
0.8265737 -0.8042872 -2.7207112 2
0.84121037 -0.8074693 -2.7242227 2
0.855947 -0.81064856 -2.72769 1
0.8707833 -0.81382495 -2.731113 1
0.88523173 -0.81629235 -2.7327094 1
0.89727104 -0.81522804 -2.7253804 1
0.9108137 -0.81628114 -2.723381 2
0.922843 -0.8152172 -2.7160563 2
0.93590784 -0.81556386 -2.7122703 2
0.94845486 -0.81520516 -2.7067149 2
0.9604542 -0.81414205 -2.6994035 2
0.9718759 -0.81237537 -2.6903496 2
0.9821224 -0.8092021 -2.677819 2
0.99228895 -0.8060311 -2.665324 2
1.0023757 -0.80286235 -2.6528642 2
1.0135778 -0.801102 -2.6439075 2
1.0253476 -0.80004543 -2.6366978 2
1.0370975 -0.7989895 -2.629497 2
1.0494548 -0.79863626 -2.6240256 2
1.0618122 -0.798283 -2.618554 2
1.0741696 -0.79792976 -2.6130826 2
1.086527 -0.79757655 -2.6076112 2
1.0988845 -0.79722327 -2.6021397 2
1.1112418 -0.79687005 -2.5966682 2
1.1229118 -0.79581636 -2.5895028 2
1.1352592 -0.79546344 -2.5840359 2
1.1476066 -0.79511046 -2.578569 2
1.1592367 -0.7940579 -2.5714211 2
1.1708467 -0.79300594 -2.5642822 2
1.1831741 -0.79265356 -2.5588238 2
1.1947542 -0.79160243 -2.5516982 2
1.2070718 -0.79125035 -2.5462444 2
1.2193892 -0.79089826 -2.5407908 2
1.232484 -0.79124403 -2.5369911 2
1.246386 -0.7922869 -2.5348327 2
1.2595307 -0.7926312 -2.531011 2
1.2735026 -0.79367197 -2.5288217 2
1.2875143 -0.79471165 -2.5266147 2
1.3007388 -0.7950537 -2.5227578 2
1.3148205 -0.79609144 -2.5205197 2
1.3289421 -0.79712796 -2.5182638 2
1.3431036 -0.7981633 -2.5159905 2
1.357305 -0.79919755 -2.5136995 2
1.3715464 -0.8002307 -2.5113907 2
1.3849406 -0.80056787 -2.5074587 2
1.3992519 -0.801599 -2.5051188 2
1.412696 -0.8019348 -2.5011647 2
1.4261601 -0.80227005 -2.4972017 2
1.4396441 -0.8026047 -2.4932299 2
1.4540851 -0.8036321 -2.4908328 2
1.4676191 -0.8039653 -2.4868388 2
1.4821299 -0.8049907 -2.4844108 2
1.4957138 -0.80532247 -2.4803946 2
1.5102946 -0.80634594 -2.4779356 2
1.5239284 -0.80667627 -2.4738975 2
1.538579 -0.80769765 -2.4714074 2
1.5532695 -0.80871797 -2.4689 2
1.5690168 -0.8104281 -2.4679227 2
1.5837972 -0.8114458 -2.4653754 2
1.5986176 -0.8124624 -2.4628103 2
1.6134777 -0.81347775 -2.4602275 2
1.6283779 -0.81449205 -2.457627 2
1.6411844 -0.81412596 -2.4519567 2
1.6539911 -0.81375986 -2.4462864 2
1.6667976 -0.8133938 -2.4406161 2
1.680701 -0.8137165 -2.4364586 2
1.6946242 -0.8140386 -2.4322922 2
1.7063341 -0.81298375 -2.4251091 2
1.7202773 -0.81330526 -2.420934 2
1.7331039 -0.81293863 -2.4152548 2
1.7459303 -0.812572 -2.4095757 2
1.758757 -0.8122053 -2.4038966 2
1.7739166 -0.8132122 -2.4011812 2
1.7902929 -0.81490433 -2.3999257 2
1.8067288 -0.81659484 -2.3986437 2
1.8232248 -0.81828356 -2.397335 2
1.8409871 -0.82065624 -2.397464 2
1.8576128 -0.82234126 -2.3960981 2
1.8779778 -0.8260797 -2.3990717 1
1.8996991 -0.8304995 -2.4034433 1
1.9265456 -0.83765316 -2.4135392 1
0.6071933 -0.9088533 -3.0467608 1
0.6191657 -0.90412825 -3.029491 1
0.6280801 -0.8914555 -2.9916325 1
0.63637793 -0.8780698 -2.9520519 1
0.6428809 -0.86108315 -2.9032922 1
0.6489248 -0.8441096 -2.8547359 1
0.65942234 -0.83869624 -2.8361242 2
0.67009723 -0.8340083 -2.819429 2
0.68097925 -0.83004487 -2.8046367 2
0.69209844 -0.8268052 -2.7917345 2
0.7034848 -0.82428825 -2.7807086 2
0.71516824 -0.8224934 -2.771546 2
0.72717863 -0.8214196 -2.764233 2
0.73916906 -0.82034636 -2.7569294 2
0.75113964 -0.8192737 -2.7496345 2
0.76309013 -0.8182016 -2.7423484 2
0.7750207 -0.81713015 -2.7350712 2
0.787765 -0.8174963 -2.7314234 2
0.80095613 -0.81858015 -2.7295723 2
0.81506073 -0.82109886 -2.7313066 2
0.829692 -0.82433295 -2.7348022 1
0.846707 -0.8311513 -2.7472165 1
0.8629881 -0.8365296 -2.7559662 1
0.881336 -0.8447708 -2.77178 1
0.9155226 -0.8379498 -2.740685 1
0.92973936 -0.83973485 -2.7403748 1
0.9440161 -0.84151816 -2.740038 1
0.95513296 -0.8390089 -2.7291312 1
0.96345687 -0.8329273 -2.7094874 1
0.97496057 -0.8311375 -2.7004044 1
0.98585784 -0.82863456 -2.689595 1
0.99669516 -0.8261334 -2.6788123 2
1.0074726 -0.8236339 -2.6680558 2
1.0187868 -0.8218495 -2.6590567 2
1.0294544 -0.8193532 -2.648349 2
1.0400622 -0.8168586 -2.637668 2
1.051863 -0.8157908 -2.630448 2
1.0642803 -0.8154358 -2.6249502 2
1.0766976 -0.8150809 -2.6194522 2
1.0891149 -0.81472594 -2.6139543 2
1.1015321 -0.814371 -2.6084564 2
1.113273 -0.8133049 -2.601263 2
1.1256803 -0.81295025 -2.5957694 2
1.1373913 -0.811885 -2.5885894 2
1.1490824 -0.81082034 -2.5814183 2
1.1614697 -0.81046623 -2.5759337 2
1.1731308 -0.80940247 -2.5687757 2
1.1855081 -0.80904865 -2.5632954 2
1.1978855 -0.80869484 -2.557815 2
1.2102629 -0.808341 -2.5523348 2
1.2234064 -0.8086958 -2.54851 2
1.23657 -0.80904996 -2.5446765 2
1.2497535 -0.8094036 -2.5408342 2
1.2637532 -0.8104643 -2.5386252 2
1.2777927 -0.811524 -2.5363986 2
1.291056 -0.8118753 -2.5325208 2
1.3051655 -0.8129329 -2.5302632 2
1.3184787 -0.81328285 -2.5263634 2
1.3335041 -0.81504476 -2.525695 2
1.3477334 -0.8160989 -2.5233846 2
1.3620025 -0.81715196 -2.5210562 2
1.3754355 -0.81749845 -2.5171034 2
1.3897744 -0.8185495 -2.514744 2
1.4032575 -0.81889457 -2.5107691 2
1.4167603 -0.8192391 -2.5067854 2
1.4302833 -0.819583 -2.5027926 2
1.4438261 -0.8199263 -2.4987912 2
1.4583248 -0.8209728 -2.4963613 2
1.4719175 -0.82131475 -2.4923375 2
1.4864862 -0.8223592 -2.4898767 2
1.5010947 -0.8234026 -2.4873981 2
1.5147673 -0.8237422 -2.483339 2
1.5284598 -0.8240813 -2.4792714 2
1.5431682 -0.8251218 -2.4767487 2
1.5579164 -0.82616115 -2.474208 2
1.5727047 -0.82719934 -2.4716501 2
1.5875328 -0.82823646 -2.4690742 2
1.6024008 -0.8292724 -2.466481 2
1.6173087 -0.8303072 -2.4638698 2
1.6322565 -0.83134085 -2.461241 2
1.645113 -0.8309733 -2.4555485 2
1.6579696 -0.8306058 -2.449856 2
1.6708261 -0.8302383 -2.4441638 2
1.6847782 -0.83057 -2.439981 2
1.696539 -0.8295033 -2.4327788 2
1.7105111 -0.8298344 -2.4285874 2
1.7233776 -0.8294666 -2.4228904 2
1.7362441 -0.8290988 -2.4171937 2
1.7491106 -0.828731 -2.4114969 2
1.7631325 -0.8290607 -2.4072833 2
1.7771745 -0.82938975 -2.4030607 2
1.7935872 -0.83111197 -2.4017782 2
1.81006 -0.8328325 -2.4004688 2
1.827788 -0.83524764 -2.4005988 2
1.8443904 -0.8369644 -2.3992321 2
1.8634835 -0.840071 -2.4007523 2
1.883902 -0.84387016 -2.4036808 1
1.9093815 -0.8504465 -2.4123473 1
1.93257 -0.8556274 -2.4180386 1
2.261332 -0.7198586 -1.9273734 1
2.2677376 -0.7174841 -1.9185529 1
0.60694647 -0.92660826 -3.0519264 1
0.6192314 -0.9225529 -3.036531 1
0.62902224 -0.9119013 -3.0043194 1
0.63715357 -0.89759284 -2.9628868 1
0.6443335 -0.88183 -2.9178927 1
0.6502063 -0.8638819 -2.8675041 1
0.6595775 -0.85546476 -2.841452 2
0.6699929 -0.8499811 -2.822902 2
0.6809203 -0.8459646 -2.8081079 2
0.69208384 -0.8426821 -2.7952003 2
0.70351326 -0.8401329 -2.784166 2
0.7155947 -0.8390467 -2.7768257 2
0.7276561 -0.8379611 -2.769494 2
0.7396976 -0.83687603 -2.7621715 2
0.7517191 -0.8357915 -2.7548575 2
0.7641164 -0.8354372 -2.7493684 2
0.7765138 -0.83508277 -2.7438793 2
0.7897426 -0.83618635 -2.7420044 2
0.8042886 -0.83947474 -2.7455199 2
0.81937015 -0.84348863 -2.7507894 1
0.9612428 -0.8623993 -2.7496996 1
0.9691696 -0.85550517 -2.7282693 1
0.97858334 -0.850791 -2.7121542 1
0.9873117 -0.84535563 -2.6943512 1
1.0005041 -0.84571934 -2.6905012 1
1.0113747 -0.8431861 -2.6797147 2
1.0227808 -0.84137833 -2.670682 2
1.034147 -0.8395718 -2.661667 2
1.0448579 -0.83704305 -2.6509511 2
1.0555089 -0.8345161 -2.6402617 2
1.0673705 -0.8334362 -2.6330185 2
1.0792124 -0.83235687 -2.6257842 2
1.0916896 -0.8320002 -2.6202598 2
1.1041667 -0.8316435 -2.6147354 2
1.1166439 -0.83128685 -2.6092107 2
1.1284359 -0.83020896 -2.6019986 2
1.1395125 -0.8284106 -2.5931118 2
1.1519599 -0.82805485 -2.5876005 2
1.1636919 -0.8269786 -2.5804148 2
1.1761291 -0.8266231 -2.574908 2
1.1885663 -0.8262676 -2.5694013 2
1.2010037 -0.82591206 -2.5638945 2
1.2134409 -0.8255566 -2.5583878 2
1.2266433 -0.82592 -2.5545332 2
1.2398657 -0.82628286 -2.5506701 2
1.253893 -0.8273636 -2.5484416 2
1.2679603 -0.82844317 -2.5461955 2
1.2812625 -0.8288038 -2.542297 2
1.2953997 -0.8298813 -2.5400198 2
1.3087518 -0.8302405 -2.5360992 2
1.3229588 -0.83131605 -2.533791 2
1.3372059 -0.8323905 -2.5314653 2
1.3514928 -0.8334638 -2.5291219 2
1.3658196 -0.83453596 -2.5267608 2
1.3801863 -0.83560693 -2.524382 2
1.3937082 -0.8359613 -2.5203865 2
1.4072499 -0.836315 -2.5163817 2
1.4208117 -0.8366682 -2.5123682 2
1.4353082 -0.8377355 -2.509932 2
1.4498446 -0.8388016 -2.5074782 2
1.4634862 -0.8391525 -2.5034294 2
1.4790373 -0.8409305 -2.5025175 2
1.4936936 -0.8419933 -2.5000105 2
1.5083897 -0.84305483 -2.4974859 2
1.5221511 -0.8434023 -2.493384 2
1.5359324 -0.8437492 -2.4892733 2
1.5497336 -0.8440955 -2.4851537 2
1.5645596 -0.84515345 -2.4825716 2
1.5794255 -0.8462102 -2.479972 2
1.5933065 -0.8465542 -2.475817 2
1.6072077 -0.8468977 -2.4716532 2
1.6221733 -0.8479516 -2.4690094 2
1.6361244 -0.8482936 -2.4648235 2
1.6490308 -0.8479247 -2.459109 2
1.6619371 -0.84755576 -2.4533944 2
1.6759281 -0.8478967 -2.4491909 2
1.68775 -0.8468179 -2.4419653 2
1.7006563 -0.84644896 -2.436251 2
1.7135627 -0.84608006 -2.4305365 2
1.7264692 -0.8457111 -2.4248219 2
1.7393756 -0.84534216 -2.4191074 2
1.7534263 -0.84568137 -2.4148774 2
1.7663428 -0.8453122 -2.4091585 2
1.781588 -0.84635806 -2.4063907 2
1.7980474 -0.8481101 -2.4050767 2
1.8145667 -0.8498604 -2.4037359 2
1.8323404 -0.8523157 -2.4038312 2
1.8501937 -0.85476875 -2.403891 2
1.8705556 -0.85863173 -2.4068227 1
1.8934859 -0.863903 -2.4125993 1
1.9202785 -0.8712864 -2.4226394 1
2.269922 -0.73090374 -1.917381 1
0.60644376 -0.9437231 -3.0551813 1
0.6190289 -0.9403585 -3.0416589 1
0.6294149 -0.9310471 -3.0132096 1
0.63791174 -0.91728234 -2.9736712 1
0.64519453 -0.9012987 -2.9287078 1
0.652058 -0.88532704 -2.88393 1
0.66002667 -0.87307984 -2.8486009 2
0.67050946 -0.8675217 -2.8300464 2
0.6811774 -0.86270946 -2.8133976 2
0.6920604 -0.8586423 -2.7986412 2
0.7038779 -0.85680205 -2.7894337 2
0.71565557 -0.854963 -2.7802439 2
0.72775793 -0.8538658 -2.7728977 2
0.7398405 -0.85276926 -2.7655604 2
0.75228775 -0.8524134 -2.760049 2
0.7651296 -0.85279757 -2.7563508 2
0.77839625 -0.85392076 -2.754452 2
0.7925321 -0.8565215 -2.7561433 2
0.8080218 -0.86133724 -2.763198 1
0.98274076 -0.87136716 -2.7255898 1
0.9983494 -0.874677 -2.7286165 1
1.0054421 -0.8669622 -2.7056005 1
1.013504 -0.860722 -2.6861305 2
1.0273496 -0.8618286 -2.6839752 2
1.0388178 -0.8599984 -2.6749225 2
1.0496317 -0.85743564 -2.6641717 2
1.0603857 -0.8548746 -2.6534474 2
1.0717142 -0.8530483 -2.6444564 2
1.0836469 -0.85195607 -2.6371856 2
1.0955597 -0.8508643 -2.6299233 2
1.1081167 -0.85050535 -2.6243634 2
1.1199996 -0.84941447 -2.6171145 2
1.1318625 -0.8483242 -2.6098745 2
1.1430112 -0.846503 -2.600963 2
1.1548243 -0.84541416 -2.5937452 2
1.1673313 -0.8450566 -2.5882075 2
1.1798384 -0.8446991 -2.5826697 2
1.1916115 -0.84361136 -2.5754695 2
1.2048527 -0.84398407 -2.5715942 2
1.2173599 -0.84362656 -2.5660565 2
1.231395 -0.8447278 -2.5638175 2
1.2446961 -0.8450988 -2.5599158 2
1.2588012 -0.846198 -2.5576456 2
1.2721522 -0.84656763 -2.553722 2
1.2863272 -0.84766483 -2.5514207 2
1.2997282 -0.84803295 -2.5474749 2
1.313973 -0.8491282 -2.545143 2
1.3282577 -0.85022235 -2.5427933 2
1.3425823 -0.85131526 -2.5404258 2
1.3569468 -0.8524071 -2.5380409 2
1.3722153 -0.85422426 -2.5372431 2
1.3857958 -0.8545873 -2.5332177 2
1.3993964 -0.8549497 -2.5291834 2
1.4139107 -0.85603726 -2.5267322 2
1.4284649 -0.8571237 -2.5242631 2
1.4430591 -0.8582089 -2.5217764 2
1.4576932 -0.859293 -2.519272 2
1.4733009 -0.8611005 -2.5183244 2
1.4889685 -0.8629063 -2.51735 2
1.504696 -0.86471033 -2.516349 2
1.5185561 -0.86506534 -2.5121999 2
1.5324361 -0.8654198 -2.5080419 2
1.5473198 -0.8664968 -2.505427 1
1.5612497 -0.86684984 -2.5012467 1
1.5762032 -0.8679248 -2.498601 1
1.5891696 -0.8675542 -2.4928598 1
1.6011124 -0.8664616 -2.4855845 1
1.6151022 -0.8668129 -2.4813778 2
1.6280684 -0.86644226 -2.4756367 2
1.6410347 -0.8660716 -2.4698958 2
1.654001 -0.86570096 -2.4641547 2
1.6669673 -0.86533034 -2.4584138 2
1.6799335 -0.86495966 -2.4526727 2
1.6918064 -0.8638691 -2.4454284 2
1.7047628 -0.8634987 -2.4396915 2
1.7166057 -0.862409 -2.4324603 2
1.729552 -0.8620389 -2.4267282 2
1.7424984 -0.8616688 -2.420996 2
1.756588 -0.8620173 -2.4167452 2
1.7706977 -0.8623652 -2.4124856 2
1.7859906 -0.86343044 -2.4096894 2
1.8024967 -0.86521226 -2.4083438 2
1.8190626 -0.86699235 -2.4069717 2
1.8356885 -0.8687707 -2.405573 2
1.8547808 -0.871981 -2.4070575 2
1.8776124 -0.8773381 -2.412849 1
1.9042733 -0.88483936 -2.4229076 1
1.9299206 -0.8916184 -2.4314275 1
2.2854233 -0.7447355 -1.9122863 1
0.60593224 -0.96092117 -3.0584114 1
0.61805403 -0.9560051 -3.0411406 1
0.6295285 -0.9495845 -3.0201886 1
0.6381048 -0.9356308 -2.9806802 1
0.64547044 -0.9194269 -2.935756 1
0.65329814 -0.90549463 -2.8965793 1
0.6610702 -0.8923255 -2.859411 1
0.67038554 -0.88368183 -2.833463 2
0.68109995 -0.87880605 -2.8168154 2
0.69236207 -0.87543774 -2.803893 2
0.7042316 -0.87357527 -2.7946699 2
0.71606135 -0.87171394 -2.785464 2
0.72785115 -0.8698538 -2.776276 2
0.74034834 -0.8694965 -2.770743 2
0.7528454 -0.8691393 -2.7652094 2
0.76573616 -0.8695324 -2.7614858 2
0.7802613 -0.87292516 -2.7649744 2
0.79612696 -0.8785643 -2.773821 1
1.0103562 -0.8884338 -2.7206306 1
1.0226194 -0.8873217 -2.713217 2
1.0318965 -0.882487 -2.6972058 2
1.041657 -0.8784001 -2.6829643 2
1.054997 -0.87878036 -2.6790419 2
1.0658641 -0.87618494 -2.6682785 2
1.0773045 -0.87433475 -2.659245 2
1.0893481 -0.8732289 -2.6519287 2
1.1007186 -0.8713807 -2.6429262 2
1.1120492 -0.86953366 -2.6339417 2
1.1240131 -0.8684301 -2.6266606 2
1.1359569 -0.86732703 -2.6193883 2
1.1471877 -0.86548287 -2.6104476 2
1.1590816 -0.8643813 -2.6031976 2
1.1716685 -0.8640215 -2.5976245 2
1.1842556 -0.8636617 -2.5920513 2
1.1968426 -0.8633019 -2.5864782 2
1.2109154 -0.8644228 -2.5842152 2
1.2242754 -0.8648025 -2.5802839 2
1.2376553 -0.86518157 -2.5763435 2
1.2510551 -0.8655601 -2.5723946 2
1.2644749 -0.8659381 -2.5684366 2
1.2779146 -0.86631554 -2.56447 2
1.2921772 -0.867431 -2.5621228 2
1.3056669 -0.867807 -2.558134 2
1.3191766 -0.86818236 -2.5541365 2
1.3327061 -0.8685572 -2.55013 2
1.3470985 -0.869669 -2.5477254 2
1.3615308 -0.87077963 -2.545303 2
1.3760029 -0.8718891 -2.5428634 2
1.3905151 -0.87299746 -2.5404058 2
1.4050671 -0.8741046 -2.5379305 2
1.4205518 -0.87594676 -2.5370262 2
1.4360963 -0.8777872 -2.5360954 2
1.4517008 -0.87962586 -2.5351381 2
1.4673653 -0.8814629 -2.5341544 2
1.484022 -0.8840331 -2.534715 2
1.5007588 -0.886601 -2.5352404 2
1.5175754 -0.88916665 -2.5357304 2
1.5373595 -0.8939322 -2.5408583 1
1.5582559 -0.89942753 -2.5474775 1
1.577347 -0.9034513 -2.5509284 1
1.5945729 -0.90600526 -2.551237 1
1.6088711 -0.9063581 -2.5468903 1
1.6110394 -0.8979187 -2.5241067 1
1.6119658 -0.88875324 -2.4998894 1
1.6240094 -0.8876474 -2.4925728 1
1.6381179 -0.8880057 -2.4883099 1
1.6490892 -0.8861689 -2.4794843 1
1.6600206 -0.88433325 -2.4706764 2
1.6719843 -0.8832297 -2.4633954 2
1.6850106 -0.88285726 -2.4576278 2
1.6969444 -0.8817546 -2.45036 2
1.7088583 -0.8806524 -2.443101 2
1.7207522 -0.8795509 -2.4358509 2
1.7337484 -0.87917936 -2.4300966 2
1.7467446 -0.8788079 -2.4243422 2
1.759741 -0.8784364 -2.418588 2
1.7738893 -0.87879354 -2.4143074 2
1.7903823 -0.88060683 -2.4129567 2
1.806935 -0.88241845 -2.4115796 2
1.8235476 -0.8842283 -2.410176 2
1.8414122 -0.886764 -2.410202 2
1.861761 -0.89075184 -2.413096 2
1.8858659 -0.89691705 -2.4202785 1
1.9101504 -0.9030771 -2.4273818 1
1.9432393 -0.91431665 -2.4444742 1
2.5295794 -1.1458328 -2.8316293 1
0.6051693 -0.9774374 -3.0597434 1
0.6178332 -0.9739876 -3.046215 1
0.62936616 -0.9674822 -3.025266 1
0.6382848 -0.95410407 -2.9876516 1
0.64573324 -0.93768 -2.9427667 1
0.6542258 -0.9250859 -2.9073212 1
0.6630044 -0.91402763 -2.8757098 1
0.67119086 -0.9022142 -2.8423803 2
0.68165904 -0.89651126 -2.823883 2
0.6926527 -0.89233726 -2.8091137 2
0.70423186 -0.8896904 -2.7980459 2
0.7161037 -0.88780713 -2.7888288 2
0.7282982 -0.88668656 -2.7814493 2
0.7408452 -0.8863279 -2.775894 2
0.7533922 -0.8859693 -2.7703385 2
0.76672435 -0.8871321 -2.7683961 2
0.78251135 -0.8928565 -2.7772486 2
0.7976332 -0.8970559 -2.7824352 1
1.0405667 -0.90863866 -2.7224004 1
1.0523087 -0.9067591 -2.7132409 2
1.0609503 -0.9011084 -2.6955523 2
1.069452 -0.8954616 -2.6779258 2
1.0816066 -0.89434224 -2.670564 2
1.0943832 -0.89397705 -2.6649067 2
1.1065078 -0.89285845 -2.6575582 2
1.1179504 -0.89098746 -2.6485312 2
1.130025 -0.88987035 -2.6412046 2
1.1413978 -0.8880014 -2.6322083 2
1.1534226 -0.88688564 -2.624904 2
1.1654273 -0.88577056 -2.6176083 2
1.1781242 -0.88540757 -2.6119866 2
1.1908209 -0.88504463 -2.606365 2
1.2042496 -0.8854328 -2.6023993 2
1.2184402 -0.88657105 -2.600077 2
1.2319188 -0.8869577 -2.5960896 1
1.2454174 -0.8873438 -2.5920932 1
1.2589358 -0.88772935 -2.5880878 1
1.2724743 -0.88811433 -2.5840738 1
1.2860328 -0.88849866 -2.580051 1
1.2996112 -0.8888825 -2.5760193 2
1.3132095 -0.8892657 -2.5719788 2
1.3260062 -0.8888999 -2.5663128 2
1.3388028 -0.8885342 -2.560647 2
1.3524411 -0.88891625 -2.5565886 2
1.3660994 -0.8892978 -2.5525215 2
1.3815008 -0.8911734 -2.5516434 2
1.3960906 -0.8923003 -2.549144 2
1.4107205 -0.893426 -2.5466273 2
1.428065 -0.89679 -2.5488493 2
1.4428045 -0.89791256 -2.5462837 2
1.4566723 -0.89828813 -2.5421238 2
1.4742464 -0.90164554 -2.5442443 2
1.4891256 -0.90276414 -2.541617 2
1.507811 -0.9068618 -2.5452256 2
1.530422 -0.913935 -2.5550175 1
1.5570786 -0.9239804 -2.5709395 1
1.5791574 -0.9302969 -2.5789866 1
1.6033787 -0.93809605 -2.590046 1
1.6268282 -0.94514537 -2.5994666 1
1.6474731 -0.9499589 -2.604188 1
1.6652236 -0.9525393 -2.60425 1
1.6738616 -0.9484327 -2.5905237 1
1.6504278 -0.92131203 -2.5296075 1
1.6481434 -0.90979797 -2.500914 1
1.6581753 -0.9071953 -2.4905314 1
1.6670861 -0.9038528 -2.4786646 1
1.6780596 -0.9019952 -2.4698453 2
1.6900744 -0.9008798 -2.4625454 2
1.7020692 -0.89976496 -2.455254 2
1.7129428 -0.89791024 -2.4464788 2
1.7248877 -0.8967968 -2.4392097 2
1.7368127 -0.895684 -2.4319496 2
1.7509801 -0.896051 -2.4276571 2
1.7640262 -0.89567804 -2.4218807 2
1.7793746 -0.89678323 -2.4190454 2
1.794763 -0.8978873 -2.4161928 2
1.8113623 -0.89972866 -2.4147842 2
1.8292027 -0.9023065 -2.4148064 2
1.8483139 -0.90562 -2.4162462 2
1.869927 -0.9104059 -2.420539 1
1.894102 -0.91666245 -2.427658 1
1.9147936 -0.9207027 -2.4303784 1
1.9565318 -0.9372647 -2.4574456 1
2.5404816 -1.1606511 -2.8147745 1
0.60439974 -0.99401605 -3.0610566 1
0.61760134 -0.992074 -3.051258 1
0.6294546 -0.98625886 -3.032173 1
0.63845176 -0.97270215 -2.9945853 1
0.64598286 -0.9560579 -2.9497397 1
0.6548444 -0.9440696 -2.9161656 1
0.664613 -0.93518484 -2.8900967 1
0.6722925 -0.92166567 -2.8530924 2
0.6822051 -0.9143414 -2.830913 2
0.69293255 -0.90934074 -2.814303 2
0.7045648 -0.9066613 -2.8032224 2
0.7164887 -0.9047558 -2.7939897 2
0.7290957 -0.9043954 -2.7884078 2
0.7417027 -0.90403503 -2.7828257 2
0.754691 -0.90444607 -2.7790515 2
0.7684822 -0.90639883 -2.7788756 2
0.7843404 -0.91220415 -2.7876678 2
0.83001995 -0.9484502 -2.8623245 1
1.0656554 -0.92215633 -2.7085755 1
1.0736436 -0.9156693 -2.6892247 2
1.087151 -0.9160656 -2.685221 2
1.1000375 -0.9156972 -2.6795151 2
1.112273 -0.91456515 -2.672121 2
1.1251494 -0.914197 -2.6664197 2
1.137355 -0.91306585 -2.6590388 2
1.1488596 -0.9111723 -2.6499915 2
1.1610153 -0.9100425 -2.6426327 2
1.1731509 -0.90891325 -2.6352828 2
1.1859775 -0.9085466 -2.6296036 1
1.198804 -0.90818 -2.6239245 1
1.2130922 -0.9093362 -2.6215515 1
1.2274202 -0.9104913 -2.6191611 1
1.2417883 -0.91164523 -2.6167529 1
1.2546747 -0.9112769 -2.611047 1
1.2683319 -0.91166884 -2.606977 1
1.282009 -0.9120602 -2.602898 1
1.2941247 -0.9109315 -2.5955567 1
1.3070211 -0.9105629 -2.5898466 1
1.3199176 -0.9101942 -2.5841365 2
1.3319933 -0.90906674 -2.576813 2
1.3448797 -0.9086984 -2.5711074 2
1.3569256 -0.90757173 -2.5637972 1
1.3715032 -0.90871966 -2.5612962 1
1.3861208 -0.90986645 -2.5587773 1
1.4025195 -0.912527 -2.5594234 1
1.4198784 -0.9159425 -2.5616212 1
1.4400088 -0.9216257 -2.5685217 2
1.4575974 -0.9250346 -2.5706177 1
1.4707333 -0.9246591 -2.5648015 1
1.489392 -0.92881966 -2.5684004 2
1.509101 -0.9337326 -2.573511 1
1.5251881 -0.9356197 -2.572318 1
1.5489383 -0.9435464 -2.5835462 1
1.5700269 -0.9492023 -2.5900226 1
1.596127 -0.9586265 -2.6041634 1
1.6224867 -0.9680432 -2.6181896 1
1.646135 -0.9751905 -2.627486 1
1.6689825 -0.98157847 -2.6351602 1
1.6899891 -0.98645425 -2.6396961 1
1.7019529 -0.9845476 -2.6304455 1
1.7118163 -0.9811363 -2.6181715 1
1.6851913 -0.9513866 -2.5528686 1
1.6703904 -0.93068683 -2.5060508 1
1.6783751 -0.9265469 -2.492632 1
1.6862599 -0.92240983 -2.479257 1
1.6962054 -0.9197786 -2.4689236 2
1.707181 -0.9179002 -2.4601104 2
1.7170165 -0.91527206 -2.4498255 2
1.7290125 -0.9141468 -2.4425375 2
1.7421086 -0.91377246 -2.436739 2
1.7552046 -0.9133981 -2.4309404 2
1.7694408 -0.9137735 -2.426614 2
1.7848468 -0.91489774 -2.423746 2
1.8002927 -0.91602093 -2.4208605 2
1.8169488 -0.9178918 -2.419416 2
1.8348447 -0.9205095 -2.419399 2
1.8552003 -0.92462164 -2.4222465 2
1.8780757 -0.9302263 -2.4279318 1
1.8986908 -0.93433106 -2.4306643 1
1.9218656 -0.9399272 -2.436217 1
0.6029018 -1.0082996 -3.0567515 1
0.6168574 -1.0086935 -3.0525455 1
0.6290089 -1.0035899 -3.0353267 1
0.638335 -0.99064004 -2.999628 1
0.64565843 -0.97299135 -2.9529774 1
0.65544784 -0.963199 -2.9249659 1
0.66559875 -0.9549819 -2.9007406 1
0.6733767 -0.9412836 -2.8637543 2
0.6830584 -0.93307984 -2.8397367 2
0.6938623 -0.9280148 -2.8231144 2
0.7052273 -0.9245192 -2.81019 2
0.7172133 -0.92259115 -2.800937 2
0.7298801 -0.92222905 -2.7953284 2
0.74291736 -0.9226491 -2.7915292 2
0.75635487 -0.92385036 -2.7895257 2
0.77061296 -0.9266136 -2.791105 2
0.786152 -0.93171835 -2.7980366 1
0.83025765 -0.96533644 -2.865324 1
1.0920416 -0.9372431 -2.6981146 1
1.1075875 -0.93996954 -2.6991239 1
1.1186639 -0.9372748 -2.6883004 2
1.13232 -0.93767715 -2.684227 2
1.1446564 -0.9365318 -2.6767917 2
1.1569729 -0.935387 -2.6693654 2
1.1692693 -0.93424284 -2.6619477 2
1.1815459 -0.93309915 -2.654539 1
1.1952219 -0.9335009 -2.650457 1
1.2081982 -0.93313 -2.6447115 1
1.2219042 -0.9335309 -2.640616 1
1.2363698 -0.9347029 -2.6381574 1
1.2508754 -0.9358736 -2.635681 1
1.2631419 -0.9347303 -2.6282766 1
1.2769277 -0.9351289 -2.6241457 1
1.2883947 -0.93321574 -2.6151226 1
1.3006113 -0.93207383 -2.6077402 1
1.3152068 -0.93324196 -2.6052241 1
1.3306516 -0.93517864 -2.6043048 1
1.3445174 -0.9355749 -2.6001387 1
1.3608916 -0.9382777 -2.6007812 1
1.368111 -0.9325224 -2.583773 1
1.3785887 -0.92984486 -2.5732145 1
1.3967419 -0.93408215 -2.5770154 1
1.6513416 -1.0060744 -2.6615963 1
1.6713314 -1.0102593 -2.6645842 1
1.6974363 -1.0190254 -2.6767027 1
1.7056149 -1.0140355 -2.661243 1
1.719789 -1.0136303 -2.6549673 1
1.7277881 -1.0086454 -2.639587 1
1.7148844 -0.98840404 -2.594 1
1.6888719 -0.959025 -2.53054 1
1.6928152 -0.95177794 -2.5110364 1
1.6955098 -0.94377387 -2.4901123 1
1.7023209 -0.938823 -2.4752579 2
1.7111906 -0.9353987 -2.4634385 2
1.7232774 -0.9342605 -2.4561138 2
1.7342353 -0.93236184 -2.4473157 2
1.7462722 -0.93122506 -2.4400132 2
1.7594181 -0.9308493 -2.4341927 2
1.7737031 -0.93123364 -2.4298408 2
1.7891569 -0.93237734 -2.4269445 2
1.8046507 -0.93351984 -2.4240305 2
1.8225222 -0.93617976 -2.42401 2
1.8404737 -0.9388374 -2.4239542 2
1.8608826 -0.9430102 -2.4267564 1
1.8862067 -0.9502133 -2.4352746 1
1.9020599 -0.95134556 -2.4322014 1
0.60188305 -1.0241758 -3.056173 1
0.61585736 -1.0245793 -3.051955 1
0.6280354 -1.0194128 -3.0347464 1
0.63766843 -1.0070913 -3.0009391 1
0.64504576 -0.9892129 -2.9543443 1
0.6551677 -0.98008966 -2.9281983 1
0.66596824 -0.97335637 -2.9076605 1
0.67444336 -0.96106803 -2.874366 2
0.68453526 -0.9535519 -2.8521724 2
0.69510615 -0.94762826 -2.8337057 2
0.70655537 -0.9440886 -2.8207586 2
0.71827406 -0.9413444 -2.8096614 2
0.7310108 -0.9409803 -2.804022 2
0.7444861 -0.94220126 -2.8019946 2
0.75838053 -0.9442134 -2.801751 2
0.7731135 -0.94780755 -2.8050752 2
0.78874457 -0.9529823 -2.8119404 1
0.8126997 -0.97398055 -2.8545098 1
0.8292291 -0.97993255 -2.8629467 1
0.84634745 -0.98667085 -2.8730927 1
0.86013234 -0.98707986 -2.8689587 1
1.1269752 -0.9625876 -2.709451 1
1.1414386 -0.9637804 -2.706986 1
1.1539358 -0.96262 -2.6994832 1
1.1670917 -0.96224403 -2.693658 1
1.1774929 -0.9587344 -2.681175 1
1.1899102 -0.9575764 -2.6737075 1
1.2030163 -0.9572017 -2.6679046 1
1.2161223 -0.95682704 -2.6621017 1
1.229957 -0.95723474 -2.6579456 1
1.2438116 -0.9576417 -2.6537807 1
1.2584348 -0.9588299 -2.651245 1
1.2715807 -0.95845413 -2.6454246 1
1.2831895 -0.95651615 -2.6363456 1
1.29398 -0.9537984 -2.6256595 1
1.7098545 -1.044704 -2.6936169 1
1.7191876 -1.0404218 -2.6796372 1
1.7284209 -1.0361426 -2.6657016 1
1.7375544 -1.0318661 -2.6518102 1
1.7434739 -1.0252723 -2.6334336 1
1.7041677 -0.9854392 -2.5503938 1
1.6987584 -0.9711385 -2.5173385 1
1.7015337 -0.96302843 -2.496415 1
1.7073433 -0.9572408 -2.4800563 2
1.7162772 -0.95377314 -2.4682229 2
1.7273271 -0.9518511 -2.4593914 2
1.739445 -0.9507017 -2.4520566 2
1.7526608 -0.95032394 -2.4462051 2
1.7647487 -0.94917524 -2.4388835 2
1.7802303 -0.95033884 -2.4359677 2
1.794604 -0.95073104 -2.431573 2
1.8101554 -0.95189273 -2.4286263 2
1.8292503 -0.9553622 -2.4300191 2
1.8472673 -0.95805955 -2.4299197 1
1.8689274 -0.9630619 -2.4341156 1
1.8907272 -0.96806026 -2.4382496 1
0.6003829 -1.0384802 -3.0518615 1
0.6138594 -1.0372814 -3.0439289 1
0.626024 -1.0320531 -3.0267475 1
0.63672686 -1.0227993 -3.0003843 1
0.64470494 -1.0063022 -2.9575348 1
0.65487874 -0.9970635 -2.9314058 1
0.665728 -0.9902458 -2.9108753 1
0.67549264 -0.9810189 -2.8849275 2
0.6856741 -0.9734068 -2.862727 2
0.6966609 -0.968212 -2.8460672 2
0.7078661 -0.9638245 -2.8312767 2
0.7196679 -0.9610468 -2.8201537 2
0.7328426 -0.9614837 -2.816286 2
0.74640554 -0.9627229 -2.8142128 2
0.7603867 -0.9647635 -2.81392 2
0.7759801 -0.97001195 -2.8207767 1
0.7925097 -0.9768605 -2.8311505 1
0.8141165 -0.99332523 -2.8628666 1
0.8302889 -0.998557 -2.869467 1
0.8453169 -1.0013812 -2.8706765 1
0.8617389 -1.0066059 -2.8771665 1
1.1544682 -0.9949844 -2.7396924 1
1.1645155 -0.99063003 -2.7254148 1
1.1731077 -0.9846903 -2.7078495 1
1.1843107 -0.98192966 -2.6969917 1
1.1954536 -0.9791708 -2.6861603 1
1.2086595 -0.9787934 -2.680313 1
1.2225829 -0.9792088 -2.6761143 1
1.2365263 -0.9796237 -2.6719065 1
1.2527022 -0.9824151 -2.6726077 1
1.262978 -0.97886753 -2.6601946 1
1.2731738 -0.97532237 -2.6478167 1
1.721245 -1.069889 -2.7089186 1
1.7256782 -1.0616277 -2.6872973 1
1.7349968 -1.0572941 -2.673342 1
1.7421616 -1.0513953 -2.6564088 1
1.7460759 -1.0431489 -2.6350172 1
1.7194288 -1.0121863 -2.5701473 1
1.7068002 -0.9922111 -2.5265925 1
1.7096763 -0.98399436 -2.5056605 1
1.7145064 -0.9773488 -2.487795 1
1.7224376 -0.9730549 -2.4744542 2
1.7324626 -0.970328 -2.4641178 2
1.7446415 -0.9691664 -2.4567597 2
1.7579173 -0.96878684 -2.4508815 2
1.771193 -0.9684074 -2.4450035 2
1.7844688 -0.96802795 -2.4391255 2
1.7988912 -0.9684291 -2.4347055 2
1.8156471 -0.97039044 -2.4331841 2
1.8347964 -0.97391033 -2.4345348 2
1.856399 -0.97898686 -2.438731 1
1.8781414 -0.98405945 -2.4428651 1
0.59959483 -1.0552356 -3.0531216 1
0.61137116 -1.0483085 -3.0322094 1
0.6240169 -1.0446517 -3.0187614 1
0.6352464 -1.0369164 -2.9961293 1
0.64490986 -1.0251068 -2.9643793 1
0.6548684 -1.0149362 -2.9364233 1
0.665479 -1.0072186 -2.9140651 1
0.67621726 -1.000321 -2.8936129 2
0.6867956 -0.99342823 -2.8732312 2
0.6978687 -0.9881687 -2.856555 2
0.70915926 -0.98372686 -2.8417447 2
0.7213913 -0.9817296 -2.8324044 2
0.73465484 -0.9821743 -2.8284938 2
0.74830544 -0.9834317 -2.8263743 2
0.76350427 -0.9879402 -2.8314183 2
0.7788229 -0.99244523 -2.836409 1
0.7970406 -1.002634 -2.8538518 1
0.8159249 -1.0136276 -2.8729618 1
0.8300847 -1.0148705 -2.870617 1
0.8472731 -1.0217936 -2.8806665 1
1.1757226 -1.0198191 -2.7529006 1
1.1770701 -1.004952 -2.7169836 1
1.1876696 -1.0013537 -2.7044415 1
1.2023684 -1.0025812 -2.701858 1
1.2149875 -1.0013967 -2.6943085 1
1.2283031 -1.001016 -2.6884127 1
1.2430717 -1.0022415 -2.6857982 1
1.2556709 -1.0010575 -2.6782575 1
1.7246397 -1.0889815 -2.711969 1
1.7291336 -1.0806149 -2.6903567 1
1.7374917 -1.075433 -2.6748827 1
1.7406005 -1.0662823 -2.6519217 1
1.7414179 -1.0555493 -2.6260507 1
1.7315172 -1.0368844 -2.585303 1
1.7201016 -1.0174391 -2.543264 1
1.7188649 -1.005941 -2.5163403 1
1.7227279 -0.9984163 -2.4969697 1
1.7285827 -0.9924822 -2.4806416 2
1.7375852 -0.9889296 -2.4688067 2
1.749825 -0.9877559 -2.461425 2
1.7631607 -0.98737466 -2.4555206 2
1.7764963 -0.98699355 -2.449616 2
1.7886962 -0.9858209 -2.4422522 2
1.8043132 -0.98702216 -2.439262 2
1.8211257 -0.9890131 -2.4377046 2
1.8426609 -0.9941641 -2.4419053 2
1.8643355 -0.9993113 -2.446044 1
0.5988002 -1.0720536 -3.0543625 1
0.61036897 -1.0642152 -3.0316129 1
0.62252665 -1.0588626 -3.0144782 1
0.63403213 -1.0518601 -2.993715 1
0.6448256 -1.0432097 -2.9693499 1
0.65484715 -1.032913 -2.9414093 1
0.66551745 -1.0251002 -2.9190574 1
0.67631423 -1.0181181 -2.898608 2
0.68758357 -1.0127908 -2.8818665 2
0.6987331 -1.007467 -2.8651783 2
0.7100989 -1.0029712 -2.8503528 2
0.7227491 -1.0017754 -2.842793 2
0.7360913 -1.0022281 -2.8388443 2
0.7501856 -1.0043279 -2.8384795 2
0.7639638 -1.0056024 -2.8362963 1
0.8270526 -1.0530162 -2.923921 1
0.84526277 -1.0616717 -2.937403 1
1.1870941 -1.032714 -2.7410035 1
1.1964968 -1.0274402 -2.7250888 1
1.207866 -1.0246125 -2.714179 1
1.2219968 -1.0250429 -2.709881 1
1.2318554 -1.0205901 -2.6957228 1
1.2452409 -1.0202074 -2.6897962 1
1.7305684 -1.0980952 -2.6903574 1
1.7399778 -1.0936552 -2.6763983 1
1.7431386 -1.0843887 -2.653454 1
1.7429752 -1.0727148 -2.6261058 1
1.740443 -1.0594401 -2.595889 1
1.7333723 -1.0429585 -2.5598474 1
1.7301613 -1.0297033 -2.5299313 1
1.7330792 -1.0212779 -2.5090532 1
1.7347127 -1.0120552 -2.4867852 2
1.7437893 -1.008459 -2.474932 2
1.7549956 -1.0064703 -2.466053 2
1.768391 -1.0060874 -2.4601219 2
1.7817866 -1.0057044 -2.4541907 2
1.795182 -1.0053215 -2.4482596 2
1.8120112 -1.007343 -2.4466841 2
1.8289005 -1.0093628 -2.445082 1
1.8493431 -1.0137836 -2.4477825 1
1.8710802 -1.0190016 -2.4518683 1
0.5982343 -1.0897717 -3.0574358 1
0.6093624 -1.0801635 -3.0310037 1
0.6212914 -1.0739106 -3.0120368 2
0.6328157 -1.0668247 -2.9912944 2
0.6444552 -1.06058 -2.9724557 1
0.6551 -1.0518302 -2.9481928 1
0.6652499 -1.0422498 -2.9221938 1
0.6764004 -1.0360192 -2.9035716 2
0.6874112 -1.0297924 -2.8850114 2
0.69860715 -1.0244051 -2.8683243 2
0.71035326 -1.0206912 -2.8553035 2
0.7233994 -1.0203182 -2.8495271 2
0.73751044 -1.0224484 -2.8491442 2
0.75168127 -1.024577 -2.8487349 2
1.7330004 -1.1164536 -2.69185 1
1.7444826 -1.1135918 -2.680901 1
1.7518102 -1.1074704 -2.6639717 1
1.7527957 -1.096463 -2.6381204 1
1.7545654 -1.0862776 -2.6138768 1
1.745559 -1.0679547 -2.5748546 1
1.7424952 -1.0545293 -2.5449312 1
1.7434064 -1.0443685 -2.5210679 1
1.7419108 -1.0325874 -2.49436 2
1.7499782 -1.028134 -2.481013 2
1.7601528 -1.0253094 -2.470643 2
1.7736082 -1.0249249 -2.4646854 2
1.78594 -1.0237278 -2.4572704 2
1.7993855 -1.0233434 -2.4513173 2
1.8174049 -1.0262066 -2.451159 2
1.8343507 -1.0282558 -2.4495208 1
1.858337 -1.0351713 -2.4564955 1
0.5969572 -1.1050285 -3.0549407 1
0.60835147 -1.0961535 -3.030382 1
0.6198001 -1.0881318 -3.0077505 2
0.63159704 -1.08181 -2.9888675 2
0.6435283 -1.0763394 -2.9718766 2
0.6550557 -1.0700253 -2.9531128 1
0.66556156 -1.0611757 -2.9289474 1
0.67617166 -1.0531781 -2.9066873 2
0.68723 -1.0468774 -2.8881314 2
0.6981486 -1.0405807 -2.8696375 2
0.7102629 -1.0376697 -2.8584194 2
0.72403675 -1.0389857 -2.8562236 2
0.7374967 -1.039456 -2.8522155 2
0.75279564 -1.0441482 -2.8571498 1
1.737429 -1.136548 -2.6963322 1
1.749987 -1.1344792 -2.6868691 1
1.7604599 -1.1307601 -2.6744266 1
1.7677552 -1.124567 -2.657537 1
1.773868 -1.1175528 -2.6392193 1
1.7619275 -1.0965208 -2.5957217 1
1.7548006 -1.0796258 -2.5598497 1
1.7547822 -1.0685122 -2.5344899 1
1.7512567 -1.054934 -2.504829 1
1.7550592 -1.047131 -2.4855828 2
1.765297 -1.0442735 -2.4751956 2
1.7777 -1.043064 -2.4677527 2
1.7900827 -1.0418551 -2.4603188 2
1.8058429 -1.0431145 -2.4572434 2
1.8227854 -1.045195 -2.455596 2
1.8443973 -1.0505618 -2.4596865 2
1.8533629 -1.0468857 -2.4479115 1
0.5851784 -1.1335857 -3.0863047 1
0.5956782 -1.120306 -3.0524392 1
0.60733616 -1.112185 -3.0297477 1
0.6188146 -1.1040691 -3.0071356 2
0.63063914 -1.097674 -2.9882658 2
0.6428698 -1.0929978 -2.9731116 2
0.6544348 -1.0866102 -2.9543567 2
0.66586006 -1.0802264 -2.9356637 1
0.6762371 -1.0712767 -2.9115915 1
0.6870401 -1.0640454 -2.8912263 2
0.6983291 -1.0585309 -2.8745413 2
0.71049666 -1.0555872 -2.8633108 2
0.72500366 -1.0586338 -2.8646786 2
0.73959064 -1.0616779 -2.866011 1
1.7418445 -1.1567671 -2.7007768 1
1.7554762 -1.1555122 -2.6927934 1
1.7670448 -1.1525856 -2.681828 1
1.7775221 -1.1488248 -2.6693978 1
1.7858365 -1.1433954 -2.65403 1
1.7908766 -1.1354636 -2.6342685 1
1.7605807 -1.0774888 -2.515235 1
1.7634015 -1.0687551 -2.4945085 2
1.7715296 -1.0641962 -2.481171 2
1.7817807 -1.0613073 -2.4707887 2
1.7953359 -1.0609198 -2.464787 2
1.8122851 -1.0630312 -2.4631257 2
1.8327181 -1.067639 -2.4657652 2
1.8486657 -1.0689137 -2.4625995 1
0.5943968 -1.1356044 -3.0499315 1
0.60631657 -1.1282581 -3.029101 1
0.6178247 -1.1200482 -3.006508 2
0.6299388 -1.1144477 -2.9894795 2
0.64220476 -1.1097187 -2.974328 2
0.6540892 -1.1041249 -2.957401 1
0.66527027 -1.0967999 -2.9368975 1
0.67629164 -1.0894794 -2.9164643 1
0.6868416 -1.0812968 -2.894296 1
0.6984987 -1.0765852 -2.8794138 2
0.7113828 -1.0753412 -2.8717651 2
0.7262971 -1.0792933 -2.8748822 2
0.74060786 -1.0815113 -2.8743784 1
1.7462469 -1.1771111 -2.7051837 1
1.7619605 -1.1775377 -2.7001705 1
1.7715714 -1.1728846 -2.6861944 1
1.7862346 -1.1724653 -2.679702 1
1.7998574 -1.1712003 -2.6717262 1
1.7677221 -1.098562 -2.522647 1
1.7695434 -1.0888774 -2.500455 2
1.7777468 -1.0842646 -2.487102 2
1.788071 -1.0813425 -2.4766984 2
1.8016962 -1.0809529 -2.4706657 2
1.8175818 -1.0822502 -2.4675202 2
1.8403486 -1.0886048 -2.4729931 2
1.8586743 -1.0915837 -2.4726555 1
0.59334415 -1.1518029 -3.049256 1
0.60553336 -1.1452521 -3.0302753 1
0.6173321 -1.1378264 -3.0095272 2
0.6292318 -1.1312839 -2.9906747 2
0.6415332 -1.126502 -2.9755254 1
0.6534541 -1.120845 -2.958604 1
0.6646739 -1.1134359 -2.9381123 1
0.6757339 -1.1060313 -2.9176912 1
0.68694484 -1.0995085 -2.8991437 1
0.6992987 -1.0964973 -2.8878522 1
0.71225375 -1.0952408 -2.8801756 2
0.7279136 -1.1009955 -2.8868256 1
1.7536345 -1.2001524 -2.7140472 1
1.7653993 -1.197158 -2.7030165 1
1.7771043 -1.1941652 -2.6920125 1
1.793896 -1.1954573 -2.6884587 1
1.8107276 -1.1967483 -2.6848874 1
1.7737669 -1.1189464 -2.5285459 2
1.7789377 -1.1117102 -2.5107322 2
1.785048 -1.1053332 -2.4944432 2
1.793237 -1.1006689 -2.4811146 2
1.8080411 -1.1011318 -2.4765005 2
1.8251235 -1.1033015 -2.4747584 2
1.8456832 -1.1080302 -2.4772985 2
1.8767048 -1.1204342 -2.492671 1
0.5918277 -1.1662633 -3.0448976 1
0.6047436 -1.1623085 -3.0314312 1
0.61658096 -1.1547987 -3.0106947 2
0.6285183 -1.1481825 -2.991851 2
0.64085513 -1.1433477 -2.9767041 1
0.6528125 -1.1376274 -2.9597883 1
0.66407096 -1.1301342 -2.9393084 1
0.6754692 -1.1235335 -2.9207032 1
0.6873469 -1.1187118 -2.9057598 1
0.7000833 -1.1165549 -2.8962467 1
0.7137684 -1.1170602 -2.8921242 2
0.72713405 -1.1166781 -2.8862064 1
1.7629989 -1.2251167 -2.725844 1
1.7708436 -1.2186176 -2.7088122 1
1.7826217 -1.2155915 -2.6977866 1
1.8015378 -1.2186365 -2.697159 1
1.8194952 -1.2208126 -2.6950188 1
1.7797965 -1.1394764 -2.534401 2
1.7883103 -1.134751 -2.5209467 2
1.794528 -1.1282984 -2.5046353 2
1.8017142 -1.1227144 -2.4898322 2
1.8177252 -1.1240495 -2.4866168 2
1.8326479 -1.1245195 -2.4819465 2
1.8555571 -1.1310359 -2.4872983 2
0.59145427 -1.1852251 -3.0496993 1
0.6037086 -1.1785272 -3.0307405 1
0.61607194 -1.1727331 -3.0136666 2
0.62805676 -1.1660429 -2.9948273 2
0.64017045 -1.1602559 -2.977864 2
0.65216434 -1.1544724 -2.960954 1
0.66346145 -1.146895 -2.9404855 1
0.6757928 -1.1429154 -2.9272926 1
0.68773574 -1.13804 -2.9123383 1
0.70053434 -1.1358606 -2.9028049 1
0.7149351 -1.1381693 -2.9022286 1
0.72939575 -1.1404763 -2.9016256 1
1.7733366 -1.2511882 -2.7390635 1
1.77728 -1.2411008 -2.7160513 1
1.7881241 -1.2371635 -2.703517 1
1.8071054 -1.2402482 -2.7028458 1
1.8386124 -1.2538562 -2.7198281 1
1.7879648 -1.1619042 -2.543125 1
1.7954869 -1.1562485 -2.5281947 2
1.8028891 -1.1505961 -2.5133173 2
1.8123857 -1.1466975 -2.5013795 2
1.8262703 -1.1463006 -2.4952319 2
1.8424089 -1.1476529 -2.491953 2
1.8585873 -1.149004 -2.488656 2
0.587755 -1.2493268 -3.150491 1
0.590615 -1.2024696 -3.0508118 1
0.60290694 -1.195698 -3.0318618 1
0.61505914 -1.1889305 -3.0129735 1
0.6270716 -1.1821669 -2.994147 2
0.6394793 -1.1772264 -2.979005 2
0.65123224 -1.1704704 -2.9602935 2
0.6634202 -1.165536 -2.9452488 2
0.67610323 -1.1624221 -2.9338443 2
0.688419 -1.1584014 -2.9206727 1
0.70128953 -1.1561991 -2.9111147 2
0.71542954 -1.1576293 -2.9087133 1
1.7796636 -1.2739545 -2.7462535 1
1.7847049 -1.2646388 -2.7247245 1
1.793611 -1.2588812 -2.7092032 1
1.8106059 -1.2602297 -2.7055378 1
1.8359289 -1.2686776 -2.7136223 1
1.7982655 -1.186292 -2.554699 1
1.80156 -1.1770263 -2.5339434 2
1.8101346 -1.1721953 -2.5204988 2
1.8197154 -1.1682527 -2.508538 2
1.8347958 -1.1687388 -2.5037906 2
1.851022 -1.1701094 -2.5004654 2
1.8672881 -1.1714787 -2.4971228 1
0.58812225 -1.2726932 -3.1624193 1
0.5899955 -1.2206975 -3.0537314 1
0.6020987 -1.2129313 -3.032964 1
0.61428845 -1.2060901 -3.0140846 1
0.6260821 -1.1983325 -2.9934545 1
0.6382488 -1.1924196 -2.976511 1
0.65029573 -1.1865101 -2.959621 2
0.66308177 -1.1833619 -2.9481814 2
0.67610425 -1.1811346 -2.9385636 2
0.68878055 -1.1779896 -2.9271727 2
0.702662 -1.1785203 -2.9229527 2
0.7149322 -1.1744595 -2.9098155 1
1.7859731 -1.2968873 -2.753393 1
1.7931154 -1.2892629 -2.7348223 1
1.8000978 -1.281643 -2.7163224 1
1.8151203 -1.2812136 -2.709671 1
1.8384224 -1.2879678 -2.714762 1
1.807618 -1.1979496 -2.5396485 2
1.816268 -1.1930647 -2.5261884 2
1.825923 -1.1890786 -2.5142093 2
1.8399572 -1.1886774 -2.5079954 2
1.857366 -1.1909624 -2.5060656 2
1.8839127 -1.2004064 -2.5154982 1
0.5908388 -1.3064961 -3.194389 1
0.58914196 -1.2380773 -3.0548031 1
0.6012838 -1.2302269 -3.0340478 1
0.61351115 -1.223312 -3.015177 2
0.62559885 -1.2164011 -2.996368 1
0.63754666 -1.2094942 -2.9776208 1
0.64963007 -1.2035214 -2.960736 2
0.6627345 -1.2012709 -2.9510891 2
0.6760944 -1.1999512 -2.9432514 2
0.6891291 -1.1977026 -2.9336352 2
0.7040149 -1.2010288 -2.934734 2
0.7183302 -1.2024955 -2.9322405 1
1.7922653 -1.3199866 -2.7604825 1
1.8004999 -1.3131859 -2.7433794 1
1.8096088 -1.3072981 -2.7278118 1
1.8196217 -1.3023223 -2.7137663 1
1.8450427 -1.3109747 -2.721735 1
1.8147445 -1.2199256 -2.5467522 1
1.8201984 -1.2122664 -2.5289578 1
1.8321152 -1.21005 -2.5198367 2
1.8451056 -1.2087407 -2.5121624 2
1.8614472 -1.2101494 -2.508772 2
0.59008336 -1.3256407 -3.1970503 1
0.58850616 -1.2564613 -3.0576756 1
0.6009308 -1.2494681 -3.0387428 1
0.61297154 -1.2415377 -3.0180612 2
0.6251068 -1.2345529 -2.9992564 1
0.6368381 -1.2266312 -2.9787116 1
0.6492321 -1.2215354 -2.96363 2
0.6620946 -1.218323 -2.9521785 2
0.6757795 -1.2179319 -2.9461193 2
0.68885636 -1.2156614 -2.9364917 1
0.7037777 -1.219028 -2.9375603 2
0.7203992 -1.2270875 -2.9474702 1
1.803838 -1.3630148 -2.805471 1
1.797547 -1.3423325 -2.7660427 1
1.8078649 -1.3372961 -2.7518802 1
1.8180829 -1.3322626 -2.737762 1
1.8302467 -1.3290701 -2.7266197 1
1.8506128 -1.3332293 -2.7271965 1
1.8218534 -1.242068 -2.5538056 1
1.8252107 -1.2324893 -2.5331311 1
1.8349842 -1.2284168 -2.5211284 2
1.850241 -1.2289289 -2.516292 2
1.8655176 -1.2294406 -2.511447 1
0.5846294 -1.3239121 -3.1596289 1
0.58786166 -1.2749285 -3.060523 1
0.60033387 -1.2678614 -3.0415945 1
0.61242324 -1.2598466 -3.0209203 1
0.6243528 -1.2518363 -3.0003166 2
0.6363859 -1.2447817 -2.9815824 2
0.6482792 -1.2377312 -2.9629102 2
0.66116494 -1.2344869 -2.9514592 2
0.6748699 -1.2340952 -2.9453912 2
0.6879688 -1.2318034 -2.935761 1
0.70227975 -1.2333117 -2.933255 2
0.7195375 -1.2433635 -2.946681 1
1.7952659 -1.3727089 -2.7902222 1
1.8028135 -1.3648239 -2.7715588 1
1.8142085 -1.3606635 -2.7588527 1
1.8265352 -1.3574352 -2.7476494 1
1.8367587 -1.3523498 -2.7335467 1
