ply
format ascii 1.0
comment v20 pointcloud — conf>=1, radius=1.7m, n=6618
element vertex 1391
property float x
property float y
property float z
property uchar confidence
end_header
1.1164796 -0.2805426 -2.6602168 2
1.1297674 -0.28079683 -2.658607 2
1.1430953 -0.2810498 -2.6569796 2
1.1564629 -0.28130165 -2.6553345 2
1.1706213 -0.28184697 -2.655479 2
1.1848394 -0.2823906 -2.6555967 2
1.2006586 -0.2835205 -2.6592846 2
1.2150165 -0.2840601 -2.6593404 2
1.2294343 -0.28459802 -2.6593697 2
1.2431113 -0.2848411 -2.6575875 2
1.2568283 -0.2850831 -2.6557877 2
1.2705852 -0.28532386 -2.65397 2
1.2827212 -0.28497893 -2.6485913 2
1.296538 -0.28521806 -2.646747 2
1.3095442 -0.2851643 -2.6431224 2
1.3234309 -0.28540143 -2.6412473 2
1.3382279 -0.2859286 -2.6411085 2
1.3504436 -0.2855814 -2.6356943 2
1.3626595 -0.2852342 -2.6302803 2
1.3766758 -0.28546762 -2.6283476 2
1.3925529 -0.28627998 -2.62987 2
1.4075893 -0.28680035 -2.629625 2
1.4217554 -0.2870295 -2.6276262 2
1.4331406 -0.28639004 -2.6204402 2
1.4464065 -0.28632888 -2.6167004 1
1.4596922 -0.2862672 -2.612952 1
1.4720277 -0.2859166 -2.6074846 1
1.4863236 -0.2861421 -2.6054282 1
1.5036298 -0.28722972 -2.6084569 1
1.5210359 -0.28831455 -2.6114414 1
1.5395519 -0.2896837 -2.6160738 1
1.5551274 -0.29018873 -2.61559 1
1.5656122 -0.2892589 -2.6066635 1
1.5739771 -0.28775758 -2.5943966 1
1.5843621 -0.2868306 -2.5855143 1
1.5989475 -0.28704786 -2.5833294 1
1.6114327 -0.28669304 -2.577796 1
1.620678 -0.2854826 -2.5672789 2
1.6309533 -0.2845587 -2.558445 2
1.6422886 -0.28392065 -2.5512812 2
1.6558238 -0.28385186 -2.547422 2
1.6682591 -0.28349844 -2.5419104 2
1.6818243 -0.28342882 -2.538038 2
1.6942697 -0.2830751 -2.5325222 2
1.7078648 -0.28300458 -2.5286365 2
1.7191602 -0.28236768 -2.5214903 2
1.7316054 -0.28201395 -2.5159743 2
1.7440507 -0.28166023 -2.5104585 2
1.7564961 -0.28130654 -2.5049424 2
1.770141 -0.2812346 -2.5010347 2
1.7838061 -0.2811621 -2.497118 2
1.7962713 -0.28080782 -2.4915931 2
1.8099662 -0.28073448 -2.4876633 2
1.8224415 -0.28037992 -2.482134 2
1.8374159 -0.28058615 -2.4797769 2
1.8511708 -0.2805111 -2.4758203 2
1.8662151 -0.28071532 -2.473432 2
1.8800198 -0.2806389 -2.4694536 2
1.8938446 -0.28056186 -2.465466 2
1.9102882 -0.28104222 -2.4645975 2
1.9254823 -0.28124216 -2.462143 2
1.9407164 -0.28144103 -2.4596705 2
1.9573196 -0.28191686 -2.4587312 2
1.9726435 -0.2821131 -2.4562192 2
1.9893566 -0.28258583 -2.4552312 2
2.0061297 -0.28305674 -2.4542167 2
2.0229628 -0.28352603 -2.4531755 2
2.0398555 -0.28399363 -2.452108 2
2.055419 -0.2841831 -2.4494896 2
2.071022 -0.2843715 -2.4468536 2
2.0880747 -0.28483447 -2.4457154 2
2.1037676 -0.28502032 -2.4430397 2
2.12093 -0.2854802 -2.4418526 2
2.1395915 -0.28621346 -2.4421408 2
2.159782 -0.2872191 -2.4438913 2
2.1829908 -0.2887708 -2.4485836 1
2.210747 -0.2911409 -2.45768 1
2.241661 -0.2940531 -2.4696562 1
2.2728148 -0.29695854 -2.4815266 1
2.2982113 -0.2987639 -2.487389 1
2.3207493 -0.3000188 -2.490239 1
2.3449264 -0.30154294 -2.4945023 1
0.62953746 -0.32007048 -2.9593217 1
0.6393896 -0.31718028 -2.9378655 1
0.6478405 -0.3130248 -2.9084854 1
0.6563721 -0.3091933 -2.8812058 2
0.6663362 -0.3069525 -2.8639724 2
0.67618036 -0.30471507 -2.846792 2
0.6866056 -0.3031137 -2.8336265 2
0.6969509 -0.30151457 -2.8204966 2
0.7075867 -0.30023342 -2.809374 2
0.71816254 -0.29895404 -2.798278 2
0.7286786 -0.29767635 -2.7872086 2
0.739535 -0.2967152 -2.7781246 2
0.7503514 -0.29575527 -2.769058 2
0.7615481 -0.2951108 -2.7619593 2
0.77272487 -0.29446685 -2.7548695 2
0.7838818 -0.29382345 -2.7477884 2
0.79501855 -0.29318067 -2.7407162 2
0.8061354 -0.2925384 -2.7336528 2
0.8172324 -0.29189676 -2.7265983 2
0.82878935 -0.29156828 -2.721476 2
0.8398564 -0.2909275 -2.7144349 2
0.8514035 -0.29059932 -2.709317 2
0.86346054 -0.29058287 -2.7061093 2
0.8750175 -0.2902544 -2.700987 2
0.88710463 -0.29023716 -2.6977663 2
0.89921165 -0.29021937 -2.6945364 2
0.91133857 -0.29020095 -2.6912978 2
0.9234854 -0.29018202 -2.6880503 2
0.93565226 -0.29016247 -2.684794 2
0.948419 -0.29045215 -2.683408 2
0.9606358 -0.2904312 -2.6801298 2
0.9728725 -0.2904097 -2.6768425 2
0.9851291 -0.29038763 -2.6735463 2
0.99802566 -0.2906736 -2.6721027 2
1.0103322 -0.29065013 -2.6687846 2
1.0232985 -0.29093415 -2.6673102 2
1.0363047 -0.29121706 -2.665818 2
1.0493509 -0.2914988 -2.664308 2
1.0624369 -0.2917794 -2.6627808 2
1.0748832 -0.29175195 -2.6594005 2
1.0880392 -0.29203054 -2.6578422 2
1.101235 -0.2923081 -2.656266 2
1.1144708 -0.29258445 -2.654672 2
1.1277466 -0.2928597 -2.6530604 2
1.1410621 -0.29313377 -2.6514313 2
1.1544176 -0.2934067 -2.6497843 2
1.1678132 -0.2936786 -2.6481197 2
1.182008 -0.29425395 -2.648237 2
1.1970323 -0.29513204 -2.6501226 2
1.2121364 -0.2960078 -2.6519732 2
1.2265309 -0.29657754 -2.652002 2
1.2401859 -0.29684198 -2.6502223 2
1.2530713 -0.29680204 -2.6466475 2
1.2659767 -0.29676154 -2.643064 2
1.278902 -0.29672045 -2.6394715 2
1.2918475 -0.2966788 -2.6358702 2
1.305662 -0.29693872 -2.6340196 2
1.3195165 -0.29719746 -2.6321516 2
1.3325417 -0.2971536 -2.6285148 2
1.3447076 -0.29680783 -2.6231227 2
1.3577627 -0.296763 -2.6194727 2
1.3708378 -0.29671767 -2.615814 2
1.384842 -0.2969722 -2.6138794 2
1.3998053 -0.29752576 -2.6136563 2
1.4129702 -0.29747787 -2.6099575 2
1.425216 -0.29712984 -2.60453 2
1.4384108 -0.29708108 -2.6008182 2
1.4506664 -0.29673275 -2.5953863 2
1.4638911 -0.29668316 -2.5916612 2
1.479094 -0.29722992 -2.5913315 2
1.4943569 -0.29777488 -2.5909755 2
1.5106785 -0.2986161 -2.5922863 2
1.5250621 -0.2988599 -2.5901837 2
1.5394855 -0.2991025 -2.5880635 2
1.5508618 -0.29845288 -2.5808852 2
1.5622182 -0.29780385 -2.5737157 2
1.5735546 -0.29715535 -2.566555 2
1.5859301 -0.29680362 -2.56107 2
1.5983056 -0.2964519 -2.5555851 2
1.6117598 -0.2963958 -2.5517583 2
1.626323 -0.29663444 -2.549576 2
1.6376295 -0.29598683 -2.5424287 2
1.6500249 -0.29563454 -2.5369349 2
1.6624203 -0.29528224 -2.531441 2
1.6759444 -0.2952241 -2.5275831 2
1.6894885 -0.29516545 -2.5237164 2
1.7030526 -0.29510617 -2.519841 2
1.715478 -0.29475302 -2.5143337 2
1.729072 -0.29469296 -2.5104449 2
1.7415072 -0.29433954 -2.5049334 2
1.7551312 -0.2942786 -2.5010314 2
1.7675765 -0.2939249 -2.4955153 2
1.7812304 -0.29386306 -2.4916 2
1.7936857 -0.29350907 -2.4860797 2
1.8073696 -0.29344642 -2.482151 2
1.8210733 -0.29338324 -2.4782135 2
1.8347971 -0.29331946 -2.474267 2
1.8485408 -0.29325512 -2.4703119 2
1.863573 -0.29348046 -2.4679217 2
1.8773667 -0.29341462 -2.4639444 2
1.8911803 -0.29334834 -2.4599583 2
1.9063122 -0.2935708 -2.457524 2
1.9227927 -0.2940812 -2.4566283 2
1.9380144 -0.29430115 -2.4541543 2
1.9546046 -0.29480845 -2.4532099 2
1.9699162 -0.2950258 -2.450696 2
1.9866161 -0.29553 -2.449703 2
2.003376 -0.2960325 -2.4486835 2
2.0201957 -0.29653326 -2.4476373 2
2.0356967 -0.29674524 -2.4450393 2
2.0526264 -0.2972429 -2.4439447 2
2.0696158 -0.29773888 -2.4428234 2
2.0852566 -0.29794687 -2.4401634 2
2.102356 -0.2984397 -2.4389935 2
2.119515 -0.2989308 -2.437797 2
2.13961 -0.29999104 -2.4395716 2
2.159805 -0.30104846 -2.4413018 2
2.1844745 -0.3029575 -2.4474578 1
2.2122397 -0.3054311 -2.456514 1
2.2431605 -0.30846754 -2.4684439 1
2.274321 -0.3114972 -2.4802675 1
2.2997289 -0.31338528 -2.4860961 1
2.3222802 -0.31470197 -2.4889183 1
2.3495054 -0.31686467 -2.4960775 1
0.61845213 -0.33615157 -2.9789808 1
0.6273254 -0.33185965 -2.949457 1
0.63685703 -0.32855892 -2.9260392 1
0.6452811 -0.32427976 -2.8967144 1
0.65474284 -0.3213177 -2.8754604 2
0.6640448 -0.31836015 -2.854277 2
0.67386574 -0.31606117 -2.8371286 2
0.68461454 -0.31474572 -2.8259668 2
0.6953035 -0.313432 -2.8148315 2
0.7055633 -0.31179383 -2.801754 2
0.7161226 -0.31048378 -2.790676 2
0.7270111 -0.30950105 -2.781585 2
0.73785967 -0.3085194 -2.7725117 2
0.7486683 -0.30753893 -2.7634559 2
0.7598561 -0.3068843 -2.7563648 2
0.77102405 -0.30623022 -2.7492824 2
0.78217196 -0.30557674 -2.742209 2
0.7932999 -0.30492383 -2.7351444 2
0.80440784 -0.30427146 -2.7280884 2
0.81596494 -0.303943 -2.7229662 2
0.8275219 -0.30361453 -2.717844 2
0.83859015 -0.30296335 -2.710806 2
0.8501371 -0.30263516 -2.705688 2
0.8616842 -0.30230698 -2.7005703 2
0.8737502 -0.30230066 -2.697355 2
0.885836 -0.3022938 -2.694131 2
0.89794195 -0.3022864 -2.6908982 2
0.9100678 -0.3022784 -2.6876564 2
0.9222137 -0.30226985 -2.6844058 2
0.93437934 -0.30226076 -2.6811464 2
0.94656515 -0.302251 -2.677878 2
0.95935965 -0.30256066 -2.6764724 2
0.9715953 -0.3025496 -2.673182 2
0.98385084 -0.3025379 -2.6698828 2
0.9967451 -0.3028447 -2.6684332 2
1.0096792 -0.3031504 -2.6669657 2
1.0220147 -0.30313647 -2.663631 2
1.0350187 -0.30344015 -2.6621325 2
1.047404 -0.30342478 -2.6587758 2
1.060478 -0.3037265 -2.6572466 2
1.0729132 -0.3037097 -2.6538677 2
1.086057 -0.30400947 -2.6523073 2
1.0999392 -0.30462477 -2.6525521 2
1.1124643 -0.30460545 -2.6491334 2
1.1257278 -0.3049018 -2.64752 2
1.1390312 -0.305197 -2.645889 2
1.1523746 -0.30549106 -2.6442404 2
1.1657579 -0.30578396 -2.6425738 2
1.1791811 -0.30607572 -2.6408896 2
1.1934127 -0.30668116 -2.6409798 2
1.2092608 -0.30791396 -2.6446185 2
1.2236321 -0.30851546 -2.644647 2
1.2372649 -0.30880126 -2.6428697 2
1.2501292 -0.3087723 -2.6393006 2
1.2621952 -0.30842936 -2.6339529 2
1.2742614 -0.30808643 -2.628605 2
1.2880039 -0.30836916 -2.6267793 2
1.3009381 -0.30833817 -2.6231792 2
1.3138924 -0.30830663 -2.6195703 2
1.3268665 -0.3082745 -2.6159525 2
1.3389825 -0.30793017 -2.6105826 2
1.3510984 -0.3075858 -2.6052127 2
1.3650106 -0.3078637 -2.6033118 2
1.3798709 -0.3084513 -2.6031232 2
1.3920368 -0.30810553 -2.597731 2
1.4051306 -0.30807003 -2.5940604 2
1.4182446 -0.30803394 -2.5903807 2
1.4313784 -0.30799732 -2.586692 2
1.4445322 -0.3079601 -2.5829947 2
1.457706 -0.3079223 -2.5792887 2
1.4728557 -0.3085017 -2.5789719 2
1.4880652 -0.30907932 -2.5786285 2
1.5023369 -0.30934703 -2.5765684 2
1.5156403 -0.30930558 -2.5728047 2
1.5289638 -0.30926353 -2.569032 2
1.5423073 -0.3092209 -2.5652506 2
1.5546328 -0.3088706 -2.5597878 2
1.5669583 -0.3085203 -2.5543249 2
1.5813994 -0.30878317 -2.5521896 2
1.5948128 -0.30873856 -2.5483773 2
1.608246 -0.3086934 -2.544556 2
1.6195236 -0.30803624 -2.537425 2
1.6318791 -0.30768508 -2.531949 2
1.6442345 -0.30733392 -2.5264728 2
1.6577077 -0.30728763 -2.5226338 2
1.6712009 -0.30724078 -2.5187862 2
1.684714 -0.3071934 -2.5149295 2
1.698247 -0.30714542 -2.511064 2
1.7129576 -0.30740058 -2.5088093 2
1.725373 -0.30704772 -2.5033066 2
1.738966 -0.306998 -2.4994147 2
1.7525787 -0.3069478 -2.495514 2
1.7662117 -0.30689695 -2.491604 2
1.778657 -0.30654326 -2.4860883 2
1.7923198 -0.30649155 -2.4821653 2
1.8060025 -0.3064393 -2.4782336 2
1.8197052 -0.3063865 -2.4742928 2
1.8334279 -0.30633318 -2.4703434 2
1.8471705 -0.3062792 -2.466385 2
1.8609332 -0.3062247 -2.4624178 2
1.875993 -0.30646995 -2.4600081 2
1.8898056 -0.30641404 -2.456019 2
1.9049355 -0.3066573 -2.4535782 2
1.9201051 -0.30689943 -2.4511201 2
1.9353148 -0.30714047 -2.4486442 2
1.9518917 -0.30767924 -2.4476948 2
1.9671912 -0.30791774 -2.445179 2
1.9838778 -0.30845335 -2.444181 2
1.9992672 -0.30868933 -2.4416254 2
2.0160635 -0.30922183 -2.4405787 2
2.034297 -0.3100502 -2.4410279 2
2.049836 -0.3102818 -2.4384058 2
2.066812 -0.3108093 -2.4372795 2
2.083848 -0.31133506 -2.4361267 2
2.100944 -0.31185913 -2.4349473 2
2.1195266 -0.31267753 -2.4352417 2
2.1396265 -0.31378946 -2.436996 2
2.161273 -0.31519413 -2.4401975 2
2.1859536 -0.31718582 -2.4463193 1
2.2151947 -0.32005784 -2.4568179 1
2.2461326 -0.32321826 -2.4686968 1
2.2758229 -0.32607752 -2.478996 1
2.302739 -0.32834232 -2.4862597 1
2.3253136 -0.32972062 -2.48905 1
2.355593 -0.33256313 -2.4990883 1
0.6159853 -0.3476632 -2.9670784 1
0.62483156 -0.34324756 -2.93761 1
0.6340349 -0.33951584 -2.9122412 1
0.6433469 -0.33612806 -2.8889534 2
0.6527974 -0.3330833 -2.8677332 2
0.6620882 -0.33004314 -2.8465836 2
0.6722338 -0.32801968 -2.831442 2
0.682976 -0.32667333 -2.8202941 2
0.69365823 -0.32532868 -2.8091729 2
0.7039125 -0.32364914 -2.796112 2
0.714465 -0.32230818 -2.7850482 2
0.72534573 -0.3213049 -2.7759678 2
0.7361865 -0.32030275 -2.766905 2
0.74698734 -0.31930178 -2.7578602 2
0.75816643 -0.31863698 -2.7507765 2
0.7693254 -0.31797284 -2.7437017 2
0.7804644 -0.31730923 -2.7366357 2
0.7915834 -0.3166462 -2.7295787 2
0.8026825 -0.31598374 -2.7225304 2
0.8142296 -0.31565556 -2.7174125 2
0.8257767 -0.31532738 -2.7122948 2
0.8373238 -0.3149992 -2.707177 2
0.8488709 -0.314671 -2.7020593 2
0.8609257 -0.3146754 -2.6988451 2
0.8730006 -0.3146792 -2.6956224 2
0.8845676 -0.31435046 -2.6904957 2
0.89667237 -0.31435344 -2.6872597 2
0.90879714 -0.31435585 -2.6840148 2
0.9209418 -0.31435773 -2.680761 2
0.93310654 -0.314359 -2.6774986 2
0.94586885 -0.3146903 -2.6761 2
0.9580834 -0.31469014 -2.6728153 2
0.97031796 -0.31468943 -2.6695218 2
0.98257244 -0.31468818 -2.6662195 2
0.99546456 -0.3150158 -2.6647635 2
1.0077689 -0.31501305 -2.661439 2
1.0207309 -0.31533873 -2.659952 2
1.0337328 -0.31566322 -2.6584473 2
1.0467745 -0.3159866 -2.656925 2
1.0591887 -0.3159808 -2.6535516 2
1.0709453 -0.31564668 -2.648341 2
1.0847644 -0.31629494 -2.6486032 2
1.0979459 -0.31661433 -2.6470187 2
1.1104598 -0.31660566 -2.6436014 2
1.1237112 -0.3169231 -2.6419861 2
1.1370025 -0.31723937 -2.6403532 2
1.1495963 -0.31722847 -2.6369004 2
1.1629574 -0.31754273 -2.6352365 2
1.1763585 -0.31785586 -2.633555 2
1.1913341 -0.3188183 -2.6354334 2
1.2063895 -0.3197785 -2.6372764 2
1.2215248 -0.32073635 -2.639084 2
1.2351454 -0.3210433 -2.6373053 2
1.2471915 -0.32070094 -2.631966 2
1.2592376 -0.32035857 -2.6266272 2
1.2721109 -0.32033968 -2.6230507 2
1.2850041 -0.32032028 -2.619465 2
1.2979174 -0.32030028 -2.6158707 2
1.3108505 -0.32027972 -2.6122675 2
1.3238035 -0.32025862 -2.6086555 2
1.3358996 -0.31991482 -2.6032944 2
1.3479955 -0.31957102 -2.5979333 2
1.3618857 -0.31987026 -2.596035 2
1.3749086 -0.31984717 -2.592392 2
1.3879515 -0.31982347 -2.58874 2
1.4010144 -0.3197992 -2.5850794 2
1.4131603 -0.319454 -2.5796962 2
1.4272001 -0.319749 -2.5777316 2
1.4403229 -0.31972307 -2.5740445 2
1.4544325 -0.3200161 -2.5720487 2
1.469559 -0.32062724 -2.5717313 2
1.4827715 -0.32059872 -2.5680044 2
1.4960041 -0.32056963 -2.5642684 2
1.5092566 -0.32054 -2.5605237 2
1.5225291 -0.32050976 -2.55677 2
1.5368483 -0.32079682 -2.5546815 2
1.5491339 -0.32044765 -2.5492363 2
1.5624663 -0.32041577 -2.5454564 2
1.5758185 -0.32038328 -2.5416675 2
1.5891908 -0.32035023 -2.5378695 2
1.6015064 -0.3200002 -2.532411 2
1.6149087 -0.31996635 -2.5286 2
1.6283308 -0.31993183 -2.52478 2
1.6406664 -0.31958127 -2.5193129 2
1.6541184 -0.31954595 -2.5154796 2
1.6675905 -0.31951007 -2.5116377 2
1.6810826 -0.3194736 -2.5077868 2
1.6945945 -0.3194366 -2.503927 2
1.7092831 -0.31971315 -2.501675 2
1.722845 -0.31967473 -2.497793 2
1.7364268 -0.31963572 -2.4939022 2
1.7500286 -0.31959617 -2.4900026 2
1.7624539 -0.319243 -2.4844956 2
1.7760856 -0.3192026 -2.4805827 2
1.7897375 -0.3191616 -2.476661 2
1.8034091 -0.31912005 -2.4727306 2
1.8171008 -0.31907794 -2.4687912 2
1.8308123 -0.31903526 -2.464843 2
1.8445439 -0.31899202 -2.460886 2
1.8582953 -0.31894818 -2.4569201 2
1.8733432 -0.31921455 -2.4545085 2
1.888431 -0.31947973 -2.4520795 2
1.9035586 -0.3197438 -2.4496326 2
1.9187261 -0.3200068 -2.447168 2
1.9339336 -0.32026857 -2.444686 2
1.949181 -0.32052928 -2.4421859 2
1.9658045 -0.32109785 -2.441205 2
1.9811417 -0.321356 -2.4386654 2
1.997875 -0.32192144 -2.4376357 2
2.014668 -0.32248518 -2.4365797 2
2.031521 -0.32304722 -2.435497 2
2.048434 -0.3236076 -2.434388 2
2.0654068 -0.3241663 -2.4332523 2
2.0824394 -0.32472324 -2.43209 2
2.100948 -0.32558525 -2.4324026 2
2.1195366 -0.32644504 -2.43268 2
2.1396408 -0.3276087 -2.4344141 2
2.161291 -0.32907546 -2.4375925 2
2.1874285 -0.33145577 -2.4451685 1
2.2166774 -0.3344416 -2.4556236 1
2.249098 -0.33803138 -2.4689307 1
2.2788064 -0.34100422 -2.4791822 1
2.3057425 -0.3433618 -2.4864047 1
2.3313522 -0.34541008 -2.4920857 1
2.3571217 -0.3474538 -2.497696 1
0.6129726 -0.35839257 -2.9511962 1
0.621485 -0.3535046 -2.9197938 1
0.63152087 -0.3507177 -2.9004686 1
0.641417 -0.34793463 -2.881205 2
0.6508563 -0.3448073 -2.8600185 2
0.66079015 -0.34238064 -2.8428638 2
0.67094123 -0.3403052 -2.827738 2
0.6809926 -0.33823258 -2.8126564 2
0.6920152 -0.33720452 -2.8035202 2
0.70226383 -0.33548367 -2.7904766 2
0.7128097 -0.3341118 -2.7794266 2
0.72368264 -0.333088 -2.770357 2
0.73451555 -0.33206534 -2.7613049 2
0.7457156 -0.3313896 -2.7542155 2
0.7568957 -0.33071443 -2.747135 2
0.7680558 -0.33003992 -2.7400634 2
0.7791959 -0.32936588 -2.7330005 2
0.7907629 -0.32903713 -2.7278738 2
0.8018731 -0.32836398 -2.7208242 2
0.81296337 -0.3276914 -2.7137837 2
0.82451046 -0.32736322 -2.7086658 2
0.8360574 -0.32703504 -2.703548 2
0.8476045 -0.32670686 -2.6984303 2
0.85965824 -0.32672164 -2.695213 2
0.8717321 -0.32673585 -2.6919873 2
0.8832991 -0.3264071 -2.6868606 2
0.8954028 -0.32642052 -2.6836214 2
0.9075265 -0.3264333 -2.6803734 2
0.9196701 -0.32644555 -2.6771164 2
0.9324002 -0.32679853 -2.675725 2
0.9445938 -0.32680938 -2.672446 2
0.95680726 -0.3268196 -2.6691582 2
0.96904075 -0.3268293 -2.6658614 2
0.98129416 -0.32683843 -2.662556 2
0.99356747 -0.326847 -2.6592417 2
1.0071138 -0.32753417 -2.6596136 2
1.0194471 -0.32754102 -2.6562726 2
1.0324467 -0.3278863 -2.6547618 2
1.0448298 -0.32789177 -2.651399 2
1.057233 -0.32789662 -2.648027 2
1.069656 -0.32790095 -2.6446462 2
1.0827854 -0.32824257 -2.6430779 2
1.0959548 -0.32858303 -2.6414917 2
1.109164 -0.3289224 -2.6398878 2
1.1216968 -0.32892355 -2.6364584 2
1.1349759 -0.32926095 -2.6348236 2
1.1475587 -0.3292607 -2.631372 2
1.1609076 -0.32959607 -2.6297064 2
1.1742965 -0.32993034 -2.628023 2
1.1884916 -0.33059904 -2.6281075 2
1.2035227 -0.3316014 -2.629947 2
1.2178475 -0.33226645 -2.629974 2
1.2314359 -0.33259502 -2.628202 2
1.2442582 -0.33258793 -2.6246443 2
1.2562844 -0.33224612 -2.6193142 2
1.2691365 -0.33223826 -2.6157434 2
1.2811726 -0.3318962 -2.6104088 2
1.2940549 -0.33188745 -2.6068246 2
1.3069569 -0.33187813 -2.6032314 2
1.319879 -0.33186823 -2.5996296 2
1.332821 -0.33185783 -2.5960188 2
1.345783 -0.3318468 -2.5923994 2
1.358765 -0.3318352 -2.5887709 2
1.3717669 -0.33182308 -2.5851336 2
1.3847888 -0.33181036 -2.5814874 2
1.3978306 -0.3317971 -2.5778325 2
1.4099566 -0.33145246 -2.572458 2
1.4239742 -0.3317688 -2.5704958 2
1.4370759 -0.3317538 -2.5668144 2
1.4511634 -0.33206823 -2.5648212 2
1.4652908 -0.3323815 -2.5628107 2
1.4784724 -0.3323642 -2.5590937 2
1.4906781 -0.3320173 -2.553684 2
1.5038897 -0.3319992 -2.5499537 2
1.5181367 -0.33230907 -2.54789 2
1.5313982 -0.33228952 -2.5441375 2
1.5446795 -0.33226946 -2.5403764 2
1.5579809 -0.33224878 -2.5366066 2
1.5713022 -0.3322276 -2.5328276 2
1.585709 -0.33253288 -2.530693 2
1.5980046 -0.33218342 -2.5252435 2
1.6113858 -0.3321605 -2.5214381 2
1.6247869 -0.332137 -2.517624 2
1.6371025 -0.33178696 -2.5121655 2
1.6505336 -0.33176264 -2.508338 2
1.6639845 -0.3317377 -2.5045016 2
1.678591 -0.33203736 -2.5022786 2
1.692092 -0.332011 -2.49842 2
1.7056128 -0.33198416 -2.4945529 2
1.720319 -0.33228093 -2.4922853 2
1.7327144 -0.33192864 -2.4867916 2
1.7462952 -0.33190006 -2.4828978 2
1.7598959 -0.33187088 -2.478995 2
1.7735167 -0.33184114 -2.4750836 2
1.7871573 -0.33181086 -2.4711633 2
1.8008178 -0.33177996 -2.467234 2
1.8157338 -0.33207083 -2.4648738 2
1.828199 -0.33171654 -2.459349 2
1.8431747 -0.3320057 -2.456962 2
1.8569251 -0.33197227 -2.4529932 2
1.8706956 -0.33193827 -2.4490154 2
1.885771 -0.33222458 -2.4465842 2
1.9008865 -0.33250976 -2.4441357 2
1.9173471 -0.3331141 -2.443216 2
1.9312372 -0.33307672 -2.4391851 2
1.9477975 -0.33367822 -2.4382215 2
1.9630827 -0.33395857 -2.4356976 2
1.9797528 -0.33455694 -2.434685 2
1.9951277 -0.3348347 -2.4321215 2
2.0119076 -0.33542997 -2.4310603 2
2.0301223 -0.33634183 -2.4314888 2
2.0470319 -0.3369334 -2.43037 2
2.0640016 -0.33752328 -2.429225 2
2.0824358 -0.33842885 -2.4295561 2
2.10095 -0.33933222 -2.4298518 2
2.119544 -0.3402333 -2.430112 2
2.1410878 -0.34176534 -2.4333155 2
2.164196 -0.34361026 -2.437951 2
2.1903536 -0.3460833 -2.4454856 1
2.2196207 -0.34918278 -2.4558928 1
2.252057 -0.35290694 -2.469146 1
2.281783 -0.35599336 -2.4793499 1
2.310234 -0.35875863 -2.4879935 1
2.3418941 -0.36214742 -2.4994655 1
0.61052525 -0.36971694 -2.9393504 1
0.619012 -0.36469486 -2.9080064 1
0.6293117 -0.3621956 -2.890711 2
0.63918555 -0.35934067 -2.8714828 2
0.64891964 -0.35648966 -2.8523166 2
0.65884 -0.35400116 -2.8351893 2
0.6689767 -0.35187426 -2.8200881 2
0.67935956 -0.35010815 -2.8069994 2
0.6900184 -0.34870192 -2.7959101 2
0.70061743 -0.34729737 -2.7848473 2
0.7107806 -0.3455375 -2.771856 2
0.7220217 -0.34485027 -2.7647521 2
0.7328468 -0.3438071 -2.7557108 2
0.744038 -0.34312123 -2.748629 2
0.755625 -0.3427919 -2.7434936 2
0.76678616 -0.34210697 -2.736425 2
0.7779274 -0.34142256 -2.7293653 2
0.7894944 -0.34109378 -2.7242386 2
0.80060565 -0.34041023 -2.7171922 2
0.81216264 -0.34008175 -2.71207 2
0.82371974 -0.33975327 -2.7069478 2
0.8347912 -0.3390709 -2.699919 2
0.8468338 -0.33909634 -2.6967034 2
0.8583908 -0.3387679 -2.691581 2
0.8704636 -0.33879253 -2.688352 2
0.8820306 -0.33846378 -2.6832254 2
0.8946688 -0.33884007 -2.6818674 2
0.90680134 -0.33886304 -2.6786118 2
0.9189538 -0.33888543 -2.6753473 2
0.93112636 -0.3389072 -2.672074 2
0.9433187 -0.3389284 -2.668792 2
0.9555311 -0.33894905 -2.665501 2
0.9677634 -0.3389692 -2.6622012 2
0.98001575 -0.33898875 -2.6588926 2
0.9929035 -0.33935794 -2.657424 2
1.005831 -0.33972606 -2.6559377 2
1.0187986 -0.340093 -2.6544337 2
1.0318061 -0.34045884 -2.6529121 2
1.044198 -0.3404744 -2.6495416 2
1.0559447 -0.34014052 -2.6443353 2
1.0683668 -0.34015524 -2.6409514 2
1.081494 -0.34051767 -2.6393766 2
1.0946611 -0.34087896 -2.6377842 2
1.1071628 -0.3408914 -2.634365 2
1.1203998 -0.3412507 -2.6327417 2
1.1329516 -0.34126174 -2.6293004 2
1.1462585 -0.34161904 -2.627646 2
1.1588601 -0.34162867 -2.6241825 2
1.1722368 -0.34198397 -2.622497 2
1.1864185 -0.34268418 -2.6225767 2
1.2014353 -0.3437284 -2.624408 2
1.2157468 -0.34442496 -2.6244302 2
1.228528 -0.34442943 -2.620887 2
1.2413293 -0.34443337 -2.617335 2
1.2541505 -0.34443673 -2.6137743 2
1.2653415 -0.3437509 -2.6066926 2
1.2781827 -0.3437537 -2.6031227 2
1.2910439 -0.3437559 -2.5995443 2
1.3039249 -0.34375757 -2.595957 2
1.315961 -0.3434155 -2.5906224 2
1.3297468 -0.3437592 -2.5887558 2
1.3426878 -0.34375918 -2.585142 2
1.3556488 -0.34375855 -2.5815191 2
1.3686296 -0.3437574 -2.5778875 2
1.3816304 -0.34375563 -2.5742471 2
1.3937263 -0.34341186 -2.568886 2
1.4067571 -0.34340924 -2.5652323 2
1.4207526 -0.34374702 -2.563273 2
1.4338334 -0.343743 -2.559597 2
1.446934 -0.34373844 -2.5559125 2
1.4610293 -0.3440733 -2.5539086 2
1.4741797 -0.34406734 -2.550202 2
1.4873502 -0.34406075 -2.5464861 2
1.5005407 -0.34405363 -2.5427618 2
1.5137511 -0.34404588 -2.5390284 2
1.5280061 -0.34437633 -2.536954 2
1.5412663 -0.34436718 -2.5331984 2
1.5545466 -0.3443575 -2.5294342 2
1.5689014 -0.34468502 -2.5273154 2
1.581167 -0.3443364 -2.5218792 2
1.5945072 -0.34432507 -2.5180883 2
1.6078674 -0.34431306 -2.5142887 2
1.6212473 -0.34430054 -2.5104802 2
1.6346474 -0.34428746 -2.5066628 2
1.6480674 -0.3442738 -2.5028365 2
1.6615074 -0.3442596 -2.4990015 2
1.6749673 -0.34424478 -2.4951577 2
1.6895915 -0.34456468 -2.4929194 2
1.7031013 -0.34454843 -2.4890532 2
1.716631 -0.3445317 -2.4851785 2
1.7301807 -0.34451434 -2.4812949 2
1.7437505 -0.34449643 -2.4774022 2
1.7573401 -0.34447795 -2.473501 2
1.7709497 -0.34445888 -2.4695907 2
1.7845793 -0.3444393 -2.4656715 2
1.799453 -0.34475207 -2.4633226 2
1.8131325 -0.34473103 -2.4593816 2
1.8268319 -0.34470943 -2.4554315 2
1.8405514 -0.34468728 -2.4514725 2
1.8542907 -0.34466454 -2.4475048 2
1.8693242 -0.34497276 -2.4450853 2
1.8843975 -0.3452799 -2.442648 2
1.8982167 -0.3452549 -2.438645 2
1.914664 -0.34589073 -2.4377203 2
1.9298571 -0.34619442 -2.43523 2
1.9464141 -0.34682712 -2.4342568 2
1.961697 -0.34712827 -2.4317267 2
1.9783639 -0.34775788 -2.4307048 2
1.9937366 -0.34805647 -2.428135 2
2.010513 -0.34868294 -2.4270644 2
2.0287237 -0.3496364 -2.4274802 2
2.04563 -0.35025916 -2.4263523 2
2.062596 -0.35088027 -2.4251978 2
2.0824301 -0.35215533 -2.4270158 2
2.099536 -0.3527724 -2.4257994 2
2.1195495 -0.3540424 -2.4275377 2
2.1410966 -0.3556366 -2.430718 2
2.1656508 -0.35788077 -2.4368088 2
2.1932726 -0.36077332 -2.4457839 1
2.2240212 -0.3643125 -2.4576163 1
2.256483 -0.36817077 -2.4708111 1
2.287721 -0.37169603 -2.482427 1
2.3162107 -0.3745639 -2.4910169 1
2.3479075 -0.37807617 -2.5024292 1
0.60891163 -0.38206905 -2.9335182 1
0.61740273 -0.37691203 -2.9022195 1
0.6276989 -0.3743506 -2.8849475 2
0.63757044 -0.37142316 -2.8657455 2
0.64730227 -0.36849967 -2.8466055 2
0.6572193 -0.36594898 -2.8295016 2
0.66735137 -0.3637704 -2.8144205 2
0.6777286 -0.36196288 -2.8013487 2
0.68838084 -0.36052573 -2.7902734 2
0.6986083 -0.35872254 -2.777268 2
0.70950556 -0.35765657 -2.7682018 2
0.7203629 -0.35659176 -2.7591536 2
0.731575 -0.35589495 -2.7520661 2
0.74276733 -0.3551987 -2.7449875 2
0.75393957 -0.35450304 -2.7379177 2
0.7650919 -0.35380793 -2.730857 2
0.7766589 -0.35347918 -2.7257302 2
0.78778124 -0.35278493 -2.7186825 2
0.7997929 -0.35282168 -2.7154768 2
0.8108953 -0.352128 -2.708438 2
0.8224523 -0.35179955 -2.7033157 2
0.8340094 -0.35147107 -2.6981936 2
0.8455664 -0.3511426 -2.6930714 2
0.857628 -0.35117793 -2.6898434 2
0.8691951 -0.35084918 -2.684717 2
0.8812866 -0.35088363 -2.6814759 2
0.89339805 -0.35091755 -2.678226 2
0.9055295 -0.3509509 -2.6749673 2
0.91768086 -0.35098368 -2.6716995 2
0.92985237 -0.35101584 -2.6684232 2
0.94204366 -0.3510475 -2.665138 2
0.95483935 -0.35144007 -2.663703 2
0.9670806 -0.35147032 -2.6603956 2
0.97934175 -0.35149994 -2.6570792 2
0.9916229 -0.35152903 -2.6537542 2
1.0045483 -0.35191792 -2.6522617 2
1.0175136 -0.35230568 -2.6507516 2
1.030519 -0.35269234 -2.6492236 2
1.0429099 -0.3527183 -2.64585 2
1.0546565 -0.35238442 -2.6406436 2
1.0670774 -0.35240957 -2.6372566 2
1.0802025 -0.35279277 -2.6356757 2
1.0926732 -0.3528165 -2.6322665 2
1.1058681 -0.3531977 -2.6306546 2
1.1183888 -0.35322 -2.6272233 2
1.1309295 -0.35324168 -2.623783 2
1.144224 -0.35362008 -2.622127 2
1.1568147 -0.35364038 -2.6186647 2
1.1701792 -0.3540168 -2.6169777 2
1.1843477 -0.35474852 -2.6170523 2
1.1985761 -0.35547853 -2.6171002 2
1.2128644 -0.3562068 -2.617122 2
1.2264185 -0.35657787 -2.6153507 2
1.2384048 -0.3562372 -2.6100383 2
1.2512048 -0.35625154 -2.6064832 2
1.263201 -0.35591057 -2.6011662 2
1.2760311 -0.35592404 -2.597598 2
1.2880373 -0.3555828 -2.5922766 2
1.3000433 -0.35524157 -2.5869553 2
1.3129134 -0.3552539 -2.5833693 2
1.3258033 -0.3552657 -2.5797744 2
1.3387133 -0.3552769 -2.5761707 2
1.3516431 -0.35528758 -2.5725582 2
1.3645929 -0.35529763 -2.5689366 2
1.3775628 -0.35530713 -2.5653064 2
1.3905524 -0.35531607 -2.5616672 2
1.4035622 -0.35532445 -2.5580192 2
1.4165918 -0.3553323 -2.5543625 2
1.4296415 -0.3553395 -2.5506968 2
1.442711 -0.35534617 -2.5470223 2
1.4567742 -0.35570273 -2.5450253 2
1.4698937 -0.35570803 -2.541329 2
1.4830332 -0.35571268 -2.5376234 2
1.4961926 -0.3557168 -2.533909 2
1.5103855 -0.35606968 -2.5318546 2
1.5246183 -0.35642144 -2.5297828 2
1.5378575 -0.3564233 -2.526033 2
1.5511167 -0.3564246 -2.5222745 2
1.5643959 -0.3564253 -2.518507 2
1.577695 -0.35642543 -2.5147307 2
1.5910141 -0.35642505 -2.5109458 2
1.6043532 -0.35642403 -2.5071518 2
1.6188056 -0.35676953 -2.5049825 2
1.6321945 -0.35676712 -2.5011663 2
1.6456034 -0.35676417 -2.4973414 2
1.6590323 -0.35676062 -2.4935076 2
1.6724812 -0.35675654 -2.489665 2
1.6870933 -0.35709748 -2.487425 2
1.7005919 -0.35709196 -2.4835603 2
1.7141107 -0.35708585 -2.4796867 2
1.7276493 -0.35707924 -2.4758043 2
1.7412078 -0.357072 -2.471913 2
1.7547865 -0.3570642 -2.4680128 2
1.768385 -0.3570558 -2.464104 2
1.7832167 -0.35739055 -2.4617665 2
1.7968651 -0.3573808 -2.4578354 2
1.8105335 -0.35737044 -2.4538956 2
1.8242218 -0.3573595 -2.4499469 2
1.8379302 -0.35734802 -2.4459891 2
1.8529215 -0.35767823 -2.443581 2
1.8666797 -0.35766533 -2.4396014 2
1.8817408 -0.35799354 -2.4371622 2
1.896842 -0.35832062 -2.4347053 2
1.911983 -0.3586465 -2.432231 2
1.9284769 -0.35931212 -2.431275 2
1.9437077 -0.3596355 -2.4287605 2
1.9589785 -0.35995775 -2.4262285 2
1.9756321 -0.36061886 -2.4252017 2
1.9923456 -0.3612782 -2.4241483 2
2.0091188 -0.36193588 -2.4230685 2
2.025952 -0.36259183 -2.421962 2
2.0442278 -0.36358494 -2.4223344 2
2.0625837 -0.36457577 -2.4226713 2
2.0810192 -0.36556432 -2.4229727 2
2.1009474 -0.36688858 -2.4247308 2
2.1209753 -0.36821002 -2.4264448 2
2.1425357 -0.369866 -2.4295974 2
2.1671014 -0.3721929 -2.4356544 1
2.1961846 -0.37552574 -2.4460633 1
2.2269502 -0.37918893 -2.4578447 1
2.2609005 -0.3835178 -2.472451 1
2.2936475 -0.38750282 -2.4854724 1
2.3281467 -0.3918161 -2.4998353 1
0.6073004 -0.3944004 -2.9276922 1
0.6160795 -0.38948885 -2.8984275 1
0.62638223 -0.386865 -2.8811743 2
0.6359576 -0.3834848 -2.8600144 2
0.64568716 -0.38048878 -2.840901 2
0.65592456 -0.3782553 -2.8257911 2
0.66572833 -0.37564564 -2.8087592 2
0.6760999 -0.37379688 -2.7957044 2
0.68674546 -0.3723288 -2.7846427 2
0.6969673 -0.37048426 -2.7716544 2
0.7078568 -0.3693978 -2.762599 2
0.71870625 -0.3683124 -2.7535615 2
0.7303032 -0.3679828 -2.7484217 2
0.74149656 -0.36727616 -2.7413461 2
0.75266993 -0.3665701 -2.7342794 2
0.7638234 -0.3658646 -2.7272215 2
0.7753904 -0.36553586 -2.722095 2
0.7869574 -0.3652071 -2.7169683 2
0.7985244 -0.36487836 -2.7118416 2
0.8096279 -0.36417425 -2.7048059 2
0.8211849 -0.3638458 -2.6996837 2
0.8332255 -0.3638921 -2.6964617 2
0.8447925 -0.36356333 -2.691335 2
0.8563595 -0.36323458 -2.6862082 2
0.8684399 -0.36327973 -2.6829686 2
0.8805404 -0.3633243 -2.67972 2
0.89266074 -0.36336836 -2.6764624 2
0.90480113 -0.3634118 -2.6731963 2
0.91696143 -0.3634547 -2.6699212 2
0.92914164 -0.36349702 -2.6666372 2
0.9413419 -0.36353874 -2.6633444 2
0.953562 -0.36357996 -2.6600425 2
0.9658022 -0.36362058 -2.656732 2
0.9786656 -0.36403197 -2.6552598 2
0.9903424 -0.3637001 -2.6500845 2
1.0032656 -0.3641098 -2.6485858 2
1.0162288 -0.3645184 -2.6470692 2
1.0292318 -0.36492583 -2.645535 2
1.0409685 -0.36459225 -2.6403332 2
1.0527052 -0.36425868 -2.6351314 2
1.065115 -0.36429447 -2.6317456 2
1.0782279 -0.3646988 -2.6301627 2
1.0913806 -0.36510202 -2.6285622 2
1.1038703 -0.3651355 -2.6251411 2
1.1163799 -0.36516848 -2.6217113 2
1.1289095 -0.36520085 -2.6182723 2
1.142192 -0.36560038 -2.6166143 2
1.1547714 -0.3656313 -2.6131535 2
1.1681238 -0.36602888 -2.6114645 2
1.181516 -0.36642525 -2.6097577 2
1.1957213 -0.36718702 -2.6098053 2
1.2099862 -0.36794704 -2.6098263 2
1.2227254 -0.3679735 -2.6062946 2
1.2362874 -0.36836502 -2.6045127 2
1.2482636 -0.36802465 -2.5992048 2
1.2602398 -0.36768427 -2.5938966 2
1.2730489 -0.36770877 -2.590334 2
1.285035 -0.3673681 -2.5850215 2
1.297874 -0.36739168 -2.5814457 2
1.3098701 -0.36705074 -2.5761287 2
1.322739 -0.36707348 -2.5725396 2
1.3356279 -0.36709568 -2.5689416 2
1.3485367 -0.36711726 -2.5653348 2
1.3614655 -0.36713833 -2.561719 2
1.3735015 -0.36679626 -2.5563843 2
1.3864603 -0.36681643 -2.5527554 2
1.399439 -0.36683604 -2.5491176 2
1.4124376 -0.36685514 -2.545471 2
1.4264088 -0.36723506 -2.5435076 2
1.4394573 -0.36725268 -2.5398388 2
1.4525257 -0.36726975 -2.5361612 2
1.4656142 -0.3672863 -2.5324748 2
1.4787226 -0.36730224 -2.5287793 2
1.4928535 -0.3676776 -2.5267453 2
1.5070242 -0.36805186 -2.5246935 2
1.5212349 -0.36842498 -2.5226243 2
1.5334207 -0.36807865 -2.5172231 2
1.5476912 -0.36845002 -2.5151272 2
1.5609493 -0.36846173 -2.5113657 2
1.5742275 -0.36847287 -2.507595 2
1.5875255 -0.3684834 -2.5038157 2
1.6019257 -0.36885113 -2.5016623 2
1.6152737 -0.36886027 -2.4978607 2
1.6286416 -0.36886886 -2.4940503 2
1.6431416 -0.3692337 -2.4918525 2
1.6565595 -0.36924088 -2.4880202 2
1.6699972 -0.36924744 -2.4841788 2
1.683455 -0.3692535 -2.4803286 2
1.6969327 -0.3692589 -2.4764695 2
1.7115924 -0.36961925 -2.4742012 2
1.7239479 -0.3692681 -2.468725 2
1.7386676 -0.36962676 -2.46643 2
1.752235 -0.36962968 -2.4625313 2
1.7658225 -0.36963195 -2.4586236 2
1.7806419 -0.36998776 -2.4562843 2
1.7942793 -0.3699887 -2.4523547 2
1.8079367 -0.36998907 -2.448416 2
1.822856 -0.37034202 -2.4460325 2
1.8365632 -0.3703409 -2.4420717 2
1.8502903 -0.37033927 -2.438102 2
1.8653095 -0.3706894 -2.4356744 2
1.8803684 -0.37103844 -2.433229 2
1.8954673 -0.37138632 -2.4307659 2
1.9106061 -0.37173304 -2.4282851 2
1.925785 -0.37207863 -2.4257867 2
1.9423254 -0.37277403 -2.4247992 2
1.957594 -0.3731171 -2.4222608 2
1.9742442 -0.3738094 -2.4212246 2
1.9909544 -0.37449995 -2.420162 2
2.0077245 -0.37518883 -2.4190726 2
2.025926 -0.37622553 -2.4194634 2
2.0442076 -0.37725994 -2.4198186 2
2.062569 -0.37829208 -2.4201386 2
2.08101 -0.379322 -2.420423 2
2.1009429 -0.38069797 -2.422161 2
2.1209753 -0.38207114 -2.4238548 2
2.1439707 -0.3841371 -2.4284642 2
2.1685474 -0.38654658 -2.4344873 1
2.1976388 -0.3899933 -2.4448528 1
2.2298727 -0.3941277 -2.4580545 1
2.2638373 -0.39860138 -2.4726036 1
2.3010447 -0.40375993 -2.4899445 1
2.331114 -0.40717888 -2.4998765 1
0.5982462 -0.4141022 -2.9631677 1
0.6054183 -0.40631974 -2.9198828 1
0.61447346 -0.40167478 -2.89265 2
0.62448007 -0.39859825 -2.8734388 2
0.63434696 -0.39552572 -2.8542898 2
0.6443869 -0.3928471 -2.8371747 2
0.6546297 -0.3905616 -2.8220806 2
0.66477287 -0.38827896 -2.807031 2
0.67515874 -0.38638827 -2.7939842 2
0.68511224 -0.38411102 -2.7790184 2
0.6956911 -0.38261372 -2.7679973 2
0.7065828 -0.38150644 -2.758948 2
0.7174345 -0.38040027 -2.7499168 2
0.72903144 -0.38007066 -2.744777 2
0.7402259 -0.3793536 -2.7377045 2
0.75140035 -0.37863714 -2.7306411 2
0.7625549 -0.37792125 -2.7235863 2
0.7741219 -0.3775925 -2.7184596 2
0.7856889 -0.37726375 -2.7133331 2
0.7972559 -0.376935 -2.7082064 2
0.8088229 -0.37660626 -2.7030797 2
0.82039 -0.3762775 -2.697953 2
0.831957 -0.37594876 -2.6928265 2
0.84401643 -0.37600487 -2.6895924 2
0.8555933 -0.37567583 -2.6844614 2
0.86717033 -0.37534678 -2.67933 2
0.8792697 -0.37540177 -2.6760786 2
0.891389 -0.3754562 -2.672818 2
0.9035282 -0.37551007 -2.6695485 2
0.91623974 -0.37594652 -2.6681364 2
0.92842877 -0.37599897 -2.6648448 2
0.94006574 -0.37566823 -2.659687 2
0.9522848 -0.37571982 -2.6563823 2
0.965116 -0.3761529 -2.654917 2
0.97738504 -0.37620306 -2.65159 2
0.989674 -0.37625265 -2.6482544 2
1.002605 -0.3766829 -2.646745 2
1.0149438 -0.37673107 -2.643387 2
1.0273026 -0.3767787 -2.6400204 2
1.0396814 -0.37682575 -2.6366446 2
1.0514181 -0.37649217 -2.6314428 2
1.0638268 -0.37653837 -2.628054 2
1.0762554 -0.37658402 -2.6246562 2
1.089396 -0.37700826 -2.6230538 2
1.1018746 -0.37705252 -2.6196342 2
1.1143732 -0.37709612 -2.6162055 2
1.1276135 -0.37751755 -2.6145587 2
1.140162 -0.37755978 -2.611108 2
1.1527303 -0.37760147 -2.6076484 2
1.1653187 -0.37764254 -2.6041799 2
1.1786889 -0.3780603 -2.602476 2
1.1928707 -0.37885383 -2.6025229 2
1.2063308 -0.37926906 -2.6007788 2
1.2198306 -0.3796831 -2.5990171 2
1.2325687 -0.37971994 -2.5954823 2
1.244515 -0.37938043 -2.5901875 2
1.257283 -0.3794164 -2.5866396 2
1.2700709 -0.37945184 -2.5830827 2
1.2820371 -0.37911174 -2.577779 2
1.2948551 -0.37914628 -2.5742087 2
1.3068312 -0.3788059 -2.5689008 2
1.3196791 -0.37883967 -2.5653174 2
1.3316653 -0.378499 -2.560005 2
1.3445431 -0.37853187 -2.5564082 2
1.3574408 -0.37856415 -2.5528026 2
1.3703585 -0.3785959 -2.5491881 2
1.3832961 -0.37862703 -2.545565 2
1.3962538 -0.37865767 -2.5419326 2
1.4092313 -0.37868768 -2.5382917 2
1.4222289 -0.37871712 -2.5346417 2
1.4352463 -0.37874603 -2.5309832 2
1.4482839 -0.37877437 -2.5273156 2
1.4623227 -0.37917313 -2.5253153 2
1.4754101 -0.3792 -2.5216255 2
1.4895188 -0.3795968 -2.519594 2
1.5036674 -0.3799924 -2.517545 2
1.5168345 -0.380017 -2.51382 2
1.5300217 -0.3800411 -2.510086 2
1.5432289 -0.38006464 -2.5063434 2
1.5575072 -0.38045657 -2.5042367 2
1.5707642 -0.38047862 -2.5004718 2
1.5840412 -0.38050017 -2.4966981 2
1.5984193 -0.38088927 -2.4945474 2
1.6117462 -0.38090938 -2.4907515 2
1.6261942 -0.38129646 -2.4885695 2
1.6406821 -0.38168246 -2.48637 2
1.6529677 -0.3813333 -2.4809248 2
1.6675155 -0.38171756 -2.4786987 2
1.6809622 -0.38173425 -2.47485 2
1.6944288 -0.3817504 -2.4709923 2
1.7079154 -0.38176593 -2.4671257 2
1.7214218 -0.38178095 -2.4632502 2
1.7361294 -0.3821607 -2.4609535 2
1.7496859 -0.38217428 -2.4570558 2
1.7632622 -0.3821873 -2.4531496 2
1.7780695 -0.38256422 -2.4508083 2
1.7916958 -0.38257578 -2.4468799 2
1.805342 -0.3825868 -2.4429426 2
1.8202492 -0.3829609 -2.4405572 2
1.8339453 -0.3829705 -2.4365978 2
1.8489223 -0.3833426 -2.4341815 2
1.8639392 -0.3837135 -2.4317474 2
1.8789959 -0.38408336 -2.4292958 2
1.8940927 -0.38445202 -2.4268265 2
1.9092293 -0.38481954 -2.4243395 2
1.9244058 -0.38518596 -2.4218347 2
1.940943 -0.38591257 -2.4208376 2
1.9562094 -0.38627642 -2.4182932 2
1.9728565 -0.3869999 -2.4172475 2
1.9895633 -0.3877217 -2.4161754 2
2.00633 -0.3884418 -2.4150767 2
2.0245273 -0.38952008 -2.4154549 2
2.0428045 -0.3905961 -2.4157977 2
2.0611615 -0.39166987 -2.416105 2
2.080999 -0.39310044 -2.417867 2
2.100936 -0.39452815 -2.419585 2
2.1223934 -0.39631158 -2.4227397 2
2.1439707 -0.39809155 -2.4258416 1
2.1699893 -0.40094194 -2.4333074 1
2.2005389 -0.40486014 -2.4450977 1
2.2342489 -0.4094863 -2.459709 1
2.2726498 -0.41517577 -2.4785738 1
2.3039877 -0.41907156 -2.4900148 1
0.603269 -0.417796 -2.9100988 1
0.6125878 -0.41343868 -2.8848963 2
0.62258226 -0.4102899 -2.865716 2
0.6327385 -0.40754575 -2.8485713 2
0.6430867 -0.40520543 -2.8334486 2
0.653335 -0.40286794 -2.81837 2
0.6634835 -0.4005333 -2.8033361 2
0.6738738 -0.39860097 -2.790302 2
0.68383276 -0.3962717 -2.775352 2
0.694415 -0.39474317 -2.7643402 2
0.7053088 -0.3936151 -2.7552974 2
0.7165442 -0.39288652 -2.7482104 2
0.72775966 -0.3921585 -2.7411323 2
0.7389552 -0.39143106 -2.7340631 2
0.7501308 -0.39070418 -2.7270026 2
0.7612864 -0.3899779 -2.7199512 2
0.7732848 -0.39004612 -2.7167406 2
0.7844204 -0.3893204 -2.7096977 2
0.79598737 -0.38899165 -2.7045712 2
0.80755436 -0.3886629 -2.6994445 2
0.8191215 -0.38833413 -2.6943178 2
0.8306885 -0.38800538 -2.689191 2
0.84274673 -0.3880719 -2.685954 2
0.854825 -0.38813785 -2.682708 2
0.86641204 -0.38780853 -2.6775725 2
0.87852025 -0.38787365 -2.6743133 2
0.89064837 -0.38793823 -2.671045 2
0.9027965 -0.3880022 -2.667768 2
0.9149647 -0.3880656 -2.6644824 2
0.92715263 -0.38812843 -2.6611876 2
0.9393606 -0.38819072 -2.6578841 2
0.95158863 -0.38825244 -2.6545718 2
0.96383655 -0.3883136 -2.6512504 2
0.9761045 -0.38837412 -2.6479204 2
0.9890033 -0.38882604 -2.6464179 2
1.0013212 -0.38888517 -2.6430657 2
1.0136589 -0.38894376 -2.6397047 2
1.0260166 -0.38900176 -2.636335 2
1.0383943 -0.38905925 -2.632956 2
1.050131 -0.38872567 -2.6277542 2
1.0625386 -0.3887823 -2.6243622 2
1.0749662 -0.38883832 -2.6209614 2
1.0874137 -0.38889375 -2.6175518 2
1.100582 -0.38933802 -2.6159298 2
1.1130794 -0.38939205 -2.612498 2
1.1255969 -0.38944554 -2.6090574 2
1.1381342 -0.38949844 -2.605608 2
1.1506915 -0.3895508 -2.6021495 2
1.1632688 -0.3896026 -2.5986824 2
1.1766268 -0.3900414 -2.5969765 2
1.1900247 -0.39047912 -2.5952528 2
1.2034625 -0.3909157 -2.5935113 2
1.2169403 -0.39135113 -2.5917523 2
1.2296573 -0.3913989 -2.5882232 2
1.2415836 -0.39105994 -2.5829372 2
1.2543305 -0.3911069 -2.579395 2
1.2670975 -0.3911533 -2.5758438 2
1.2798843 -0.39119914 -2.5722837 2
1.2926911 -0.39124438 -2.5687149 2
1.3037968 -0.3905195 -2.5616853 2
1.3166236 -0.3905642 -2.5581076 2
1.3285898 -0.3902241 -2.552804 2
1.3414465 -0.3902679 -2.549213 2
1.3534228 -0.38992754 -2.543905 2
1.3672199 -0.39035392 -2.5420043 2
1.3801365 -0.39039606 -2.5383868 2
1.3930731 -0.3904376 -2.5347602 2
1.4060296 -0.3904786 -2.531125 2
1.419006 -0.39051905 -2.5274808 2
1.4320024 -0.39055893 -2.523828 2
1.4450189 -0.3905982 -2.5201662 2
1.4590355 -0.39101833 -2.5181682 2
1.4721018 -0.3910562 -2.5144844 2
1.4861884 -0.39147434 -2.5124555 2
1.5003148 -0.39189136 -2.5104089 2
1.513461 -0.39192694 -2.5066895 2
1.5266271 -0.39196202 -2.5029614 2
1.5408534 -0.39237615 -2.5008705 2
1.5540694 -0.3924098 -2.4971204 2
1.5683655 -0.39282197 -2.4949985 2
1.5816314 -0.39285412 -2.491226 2
1.5949173 -0.3928858 -2.4874449 2
1.6093131 -0.39329514 -2.4852788 2
1.623749 -0.39370337 -2.4830952 2
1.6371148 -0.3937327 -2.4792786 2
1.6505004 -0.39376152 -2.4754531 2
1.6639061 -0.39378977 -2.4716187 2
1.6784716 -0.39419428 -2.4693775 2
1.6919272 -0.39422107 -2.465521 2
1.7054026 -0.39424735 -2.4616559 2
1.7188982 -0.394273 -2.4577816 2
1.7324135 -0.39429817 -2.4538987 2
1.7471387 -0.3946981 -2.4515867 2
1.7619039 -0.395097 -2.4492571 2
1.7754993 -0.39511982 -2.4453387 2
1.7891145 -0.39514208 -2.4414115 2
1.8039794 -0.3955381 -2.4390376 2
1.8176445 -0.39555895 -2.4350882 2
1.8325794 -0.39595297 -2.4326835 2
1.8475541 -0.39634585 -2.430261 2
1.8612992 -0.39636448 -2.4262762 2
1.8763437 -0.39675537 -2.4238226 2
1.8914284 -0.39714512 -2.4213514 2
1.9065528 -0.3975337 -2.4188626 2
1.9230268 -0.3982933 -2.4178827 2
1.9382411 -0.39867935 -2.415354 2
1.9548249 -0.39943576 -2.4143255 2
1.9714687 -0.40019044 -2.4132705 2
1.9881723 -0.40094346 -2.412189 2
2.0049357 -0.40169474 -2.4110808 2
2.0231285 -0.40281463 -2.4114463 2
2.0427809 -0.40430233 -2.4132724 2
2.0611434 -0.4054174 -2.4135628 2
2.0809853 -0.40689972 -2.415305 2
2.100927 -0.40837917 -2.4170027 2
2.122388 -0.4102247 -2.420134 1
2.145398 -0.41243544 -2.4246864 1
2.1714268 -0.41537884 -2.4321153 1
2.204882 -0.42015746 -2.4467888 1
2.2415352 -0.42566362 -2.4642594 1
2.2726305 -0.4296908 -2.4757643 1
2.3158 -0.43664876 -2.4987757 1
0.59501517 -0.43903467 -2.9514256 1
0.60166746 -0.43003365 -2.9043012 1
0.6109873 -0.4255726 -2.8791344 2
0.6209793 -0.4223513 -2.8599806 2
0.6311322 -0.41954502 -2.842859 2
0.6417864 -0.41756377 -2.8297224 2
0.65204024 -0.41517425 -2.8146598 2
0.66252476 -0.4131978 -2.8015983 2
0.67258894 -0.41081366 -2.7866197 2
0.6825533 -0.40843236 -2.7716854 2
0.69277835 -0.4064633 -2.758739 2
0.7040348 -0.40572375 -2.7516465 2
0.71527135 -0.4049848 -2.7445626 2
0.7264879 -0.40424636 -2.7374878 2
0.7376845 -0.4035085 -2.7304215 2
0.7488612 -0.40277126 -2.7233644 2
0.7600179 -0.40203455 -2.716316 2
0.77201515 -0.40211317 -2.713102 2
0.7835921 -0.40178415 -2.707971 2
0.7951691 -0.4014551 -2.70284 2
0.8067461 -0.4011261 -2.6977088 2
0.81832314 -0.40079704 -2.6925778 2
0.82990015 -0.400468 -2.6874468 2
0.84196734 -0.40054464 -2.684202 2
0.85355437 -0.40021533 -2.6790664 2
0.8656515 -0.40029114 -2.6758084 2
0.8777685 -0.40036637 -2.6725416 2
0.88937545 -0.40003648 -2.6673973 2
0.90206265 -0.40051514 -2.6659815 2
0.91423965 -0.40058863 -2.662688 2
0.9258765 -0.4002579 -2.6575305 2
0.93865347 -0.400734 -2.6560748 2
0.9508903 -0.40080583 -2.6527548 2
0.96314716 -0.4008771 -2.649426 2
0.97542393 -0.40094778 -2.6460884 2
0.9877206 -0.40101793 -2.642742 2
1.0000373 -0.40108746 -2.6393867 2
1.0123739 -0.40115646 -2.6360226 2
1.0247306 -0.40122488 -2.6326494 2
1.0364573 -0.40089157 -2.6274521 2
1.0488439 -0.40095916 -2.6240659 2
1.0605805 -0.4006256 -2.6188638 2
1.0736768 -0.40109262 -2.6172667 2
1.0861233 -0.40115848 -2.613854 2
1.0985897 -0.40122375 -2.6104321 2
1.111076 -0.40128854 -2.6070018 2
1.1235824 -0.4013527 -2.6035624 2
1.1361086 -0.40141627 -2.600114 2
1.1486549 -0.4014793 -2.596657 2
1.1612211 -0.4015418 -2.5931911 2
1.1745669 -0.4020017 -2.5914834 2
1.187183 -0.40206274 -2.5879953 2
1.2013783 -0.40291816 -2.5880146 2
1.2140542 -0.40297753 -2.5845 2
1.2267503 -0.4030363 -2.5809767 2
1.2394661 -0.4030945 -2.5774443 2
1.252202 -0.40315214 -2.5739033 2
1.2649578 -0.40320924 -2.5703533 2
1.2777337 -0.4032657 -2.5667946 2
1.2896799 -0.40292618 -2.5614998 2
1.3016262 -0.40258667 -2.556205 2
1.3135724 -0.40224713 -2.5509105 2
1.3255187 -0.4019076 -2.5456157 2
1.3383543 -0.40196243 -2.5420303 2
1.35121 -0.40201664 -2.5384362 2
1.3640856 -0.4020703 -2.5348332 2
1.3779005 -0.40251693 -2.5329173 2
1.390826 -0.40256917 -2.5292923 2
1.4028322 -0.40222794 -2.5239708 2
1.4167368 -0.402672 -2.5220153 2
1.4297222 -0.40272254 -2.5183637 2
1.4436967 -0.4031646 -2.5163772 2
1.456732 -0.4032137 -2.5127034 2
1.4707764 -0.4036538 -2.510686 2
1.4838616 -0.4037015 -2.5069902 2
1.497976 -0.40413958 -2.5049417 2
1.511111 -0.40418592 -2.5012236 2
1.5252951 -0.404622 -2.4991443 2
1.53848 -0.40466687 -2.495404 2
1.551685 -0.4047112 -2.491655 2
1.565969 -0.40514445 -2.4895315 2
1.5792239 -0.40518734 -2.4857605 2
1.5924987 -0.4052297 -2.4819803 2
1.6068823 -0.4056601 -2.4798126 2
1.6213061 -0.4060894 -2.477627 2
1.6346606 -0.40612945 -2.4738116 2
1.6480353 -0.40616894 -2.4699874 2
1.6614298 -0.4062079 -2.4661543 2
1.6748444 -0.40624622 -2.4623125 2
1.6894276 -0.406671 -2.4600563 2
1.7028921 -0.40670788 -2.4561923 2
1.7163764 -0.4067443 -2.4523194 2
1.7298809 -0.4067801 -2.4484377 2
1.744594 -0.40720117 -2.4461238 2
1.759347 -0.4076211 -2.4437923 2
1.7729311 -0.40765464 -2.4398754 2
1.7877539 -0.40807256 -2.4375129 2
1.801388 -0.4081047 -2.4335735 2
1.8150421 -0.40813622 -2.4296255 2
1.8299649 -0.4085513 -2.427219 2
1.8449274 -0.40896532 -2.4247944 2
1.8599299 -0.40937817 -2.4223523 2
1.8749723 -0.40978986 -2.4198925 2
1.8900547 -0.41020042 -2.4174151 2
1.905177 -0.41060984 -2.4149199 2
1.9216478 -0.4114006 -2.4139307 2
1.93686 -0.41180745 -2.4113958 2
1.9534404 -0.4125951 -2.4103577 2
1.9700809 -0.41338098 -2.4092934 2
1.9867811 -0.4141652 -2.4082024 2
2.0048997 -0.41532868 -2.4085865 2
2.0230982 -0.41648996 -2.408935 2
2.0427551 -0.41802934 -2.4107409 2
2.0625117 -0.41956592 -2.4125028 2
2.0809696 -0.42071977 -2.4127362 2
2.102324 -0.42263055 -2.4158933 2
2.12238 -0.4241586 -2.4175222 1
2.146821 -0.4268209 -2.4235187 1
2.1757362 -0.43061486 -2.4338427 1
2.2092159 -0.43553796 -2.4484546 1
2.2458918 -0.44120947 -2.4658573 1
2.2858233 -0.4476277 -2.4860241 1
0.59262407 -0.4502019 -2.939609 1
0.6000682 -0.44225052 -2.8985097 1
0.60938895 -0.4376857 -2.8733788 2
0.6193787 -0.4343919 -2.8542514 2
0.62982756 -0.431945 -2.8391201 2
0.64017665 -0.42950088 -2.8240335 2
0.6507454 -0.42748055 -2.8109493 2
0.6605755 -0.42462125 -2.7939925 2
0.6709646 -0.42260602 -2.780988 2
0.68092453 -0.42017302 -2.7660737 2
0.6915033 -0.41858235 -2.755085 2
0.7027608 -0.41783243 -2.7479956 2
0.71399844 -0.41708305 -2.7409148 2
0.72560537 -0.41675317 -2.7357705 2
0.73681307 -0.41600463 -2.7287033 2
0.74800086 -0.41525665 -2.7216446 2
0.7595878 -0.41492733 -2.716509 2
0.7711748 -0.41459802 -2.7113736 2
0.7827618 -0.4142687 -2.706238 2
0.79389954 -0.41352215 -2.6992016 2
0.80547655 -0.41319314 -2.6940706 2
0.81752276 -0.41328073 -2.6908314 2
0.82910967 -0.4129514 -2.6856961 2
0.8406967 -0.4126221 -2.6805606 2
0.8527827 -0.41270858 -2.6773038 2
0.86488867 -0.41279453 -2.6740382 2
0.87701476 -0.41287988 -2.670764 2
0.8886316 -0.4125497 -2.665615 2
0.9007876 -0.4126342 -2.6623275 2
0.9129634 -0.41271812 -2.659031 2
0.92515934 -0.41280147 -2.6557255 2
0.93737507 -0.4128843 -2.6524112 2
0.9496108 -0.41296652 -2.6490881 2
0.9618666 -0.41304818 -2.6457562 2
0.9741422 -0.41312927 -2.6424155 2
0.9864379 -0.41320983 -2.639066 2
0.99875355 -0.41328976 -2.6357076 2
1.0110891 -0.41336915 -2.6323402 2
1.0228058 -0.41303614 -2.6271472 2
1.0351713 -0.41311467 -2.6237667 2
1.046898 -0.4127814 -2.6185691 2
1.0592934 -0.41285908 -2.6151752 2
1.0723876 -0.41334692 -2.613572 2
1.0848329 -0.41342318 -2.6101558 2
1.0972981 -0.41349888 -2.6067312 2
1.1097834 -0.41357404 -2.6032975 2
1.1222887 -0.4136486 -2.599855 2
1.1348139 -0.4137226 -2.5964036 2
1.1466204 -0.41338703 -2.5911708 2
1.1591755 -0.4134602 -2.587706 2
1.1725092 -0.41394123 -2.5859966 2
1.1858828 -0.41442108 -2.584269 2
1.1985177 -0.41449198 -2.580769 2
1.2111727 -0.41456228 -2.5772603 2
1.2238475 -0.41463205 -2.5737426 2
1.2373508 -0.41510823 -2.5719578 2
1.2500757 -0.41517657 -2.568418 2
1.261992 -0.4148379 -2.5631366 2
1.2747468 -0.41490534 -2.5595834 2
1.2866731 -0.4145664 -2.5542974 2
1.2985994 -0.41422743 -2.5490117 2
1.3105257 -0.41388845 -2.5437257 2
1.322452 -0.41354948 -2.5384398 2
1.3352666 -0.4136153 -2.5348601 2
1.3481011 -0.4136805 -2.5312717 2
1.361864 -0.4141493 -2.5293717 2
1.3747485 -0.4142131 -2.5257614 2
1.3876529 -0.41427633 -2.522142 2
1.4005772 -0.414339 -2.5185134 2
1.4144698 -0.4148041 -2.5165563 2
1.4274441 -0.41486534 -2.5129058 2
1.4414065 -0.4153285 -2.5109174 2
1.4544307 -0.41538832 -2.5072448 2
1.468463 -0.41584948 -2.5052257 2
